# .PCD v0.7 - Point Cloud Data file format
VERSION 0.7
FIELDS x y z
SIZE 4 4 4
TYPE F F F
COUNT 1 1 1
WIDTH 1500
HEIGHT 1
VIEWPOINT 0 0 0 1 0 0 0
POINTS 1500
DATA ascii
22.202696 21.849026 3.8145642
22.242849 21.751398 3.8096964
22.311071 21.681416 3.8096964
22.513191 21.341829 3.798744
23.283827 21.659391 3.8942754
23.461082 21.687202 3.9125295
12.2026 11.209083 2.0268486
12.212094 11.147272 2.0225892
12.26544 11.12552 2.0256317
12.285583 11.073642 2.0231977
13.379727 11.912524 2.191747
13.40965 11.863856 2.1905298
13.439075 11.740191 2.1832283
13.43467 11.662121 2.1765349
13.441175 11.593925 2.1716669
13.432314 11.512888 2.1643653
13.43441 11.441673 2.1588888
13.451352 11.383377 2.1558466
13.483247 11.337869 2.1552379
13.332748 11.069066 2.1199462
13.340664 11.005013 2.1156869
13.336786 10.931589 2.109602
13.386455 10.902174 2.1120358
13.401348 10.844459 2.1089935
13.412148 10.783639 2.1053426
13.422694 10.722868 2.1016917
13.423353 10.65831 2.0968239
13.421708 10.588416 2.0913475
13.427564 10.52477 2.0870881
13.460561 10.482535 2.0870881
13.520901 10.461456 2.0913475
13.68497 10.451598 2.1065595
13.769133 10.447555 2.1144698
13.845478 10.437109 2.1211631
13.929843 10.432229 2.1290731
13.994401 10.412117 2.1339412
14.054977 10.388752 2.1382005
25.039078 17.906401 3.7695367
25.46332 17.969048 3.8163898
16.884571 11.678362 2.5124161
16.882339 11.60291 2.5069399
16.918707 11.549818 2.5069399
16.839025 11.259976 2.4789495
16.886719 11.21526 2.4807751
16.901152 11.148491 2.4777327
16.902882 11.073586 2.4728649
16.931505 11.020673 2.4722562
16.936869 10.948569 2.4679968
16.950298 10.881904 2.4649546
16.992775 10.833928 2.4661715
17.085428 10.81766 2.4746902
22.403109 11.484 3.0819538
22.558516 11.474303 3.0983827
25.639023 12.738485 3.5054564
25.683371 12.660059 3.5060647
25.727472 12.581493 3.5066731
27.201246 13.091083 3.6965191
12.797558 5.8187041 1.7189575
12.79768 5.7703061 1.7165235
12.793091 5.7199459 1.7134812
12.779239 5.6656485 1.7092218
12.775238 5.6132574 1.7061794
12.77461 5.5651684 1.7037455
12.778364 5.5190997 1.70192
12.786514 5.4750228 1.700703
12.794515 5.4309492 1.6994861
12.806938 5.3888044 1.6988777
12.818292 5.3488674 1.6982691
12.835032 5.3085728 1.6982691
12.850727 5.2704644 1.6982691
12.872732 5.2296882 1.6988777
12.898305 5.1929297 1.7000945
12.923774 5.1560631 1.7013115
12.950032 5.1168246 1.7025285
12.979907 5.0815454 1.7043539
13.013434 5.0501895 1.7067878
13.052396 5.018188 1.7098302
13.095924 4.9877582 1.7134812
13.139388 4.9571042 1.717132
13.192089 4.9296932 1.7219999
13.254054 4.9054527 1.7280847
13.325315 4.8842869 1.7353864
13.46316 4.8390713 1.7493815
50.09671 17.122633 6.4864025
50.065636 16.936546 6.4754496
50.033882 16.750824 6.4644971
49.987335 16.560759 6.4517188
49.958946 16.377363 6.4413748
49.920452 16.191246 6.4298139
49.881283 16.005533 6.4182525
49.860371 15.826206 6.4091249
49.824612 15.642735 6.3981724
49.821377 15.469949 6.3914795
40.291172 12.372099 5.1629572
40.348835 12.251232 5.165391
40.368114 12.118689 5.1629572
40.420258 11.99605 5.1647825
40.46727 11.871806 5.1659999
49.789516 14.436938 6.3513198
49.806007 14.272226 6.3476686
49.829029 14.118989 6.3452349
49.844463 13.954356 6.3415842
21.111935 5.8389845 2.6809649
20.884672 5.6351194 2.6474986
20.84952 5.5554276 2.6408052
20.847675 5.4848404 2.6383717
20.797554 5.401854 2.6298528
20.795193 5.331563 2.627419
20.787781 5.2601223 2.6243763
20.770502 5.1863651 2.6201169
20.772236 5.1175284 2.6182916
20.773743 5.0487318 2.6164663
20.783806 4.9859099 2.6158576
20.799366 4.9205942 2.6158576
20.819555 4.8563571 2.6164663
20.845219 4.7895122 2.6176832
20.884363 4.7294846 2.6207256
20.932209 4.675066 2.624985
20.980721 4.6167512 2.6292443
51.504547 10.151469 6.4316392
51.599522 10.001897 6.439549
51.684315 9.8499699 6.4462423
28.690901 5.3745317 3.5742145
51.916016 9.5564671 6.4675398
28.577593 5.1676707 3.5559602
28.525278 5.0657215 3.5474415
28.472605 4.9641519 3.5389228
28.434252 4.865459 3.5322294
28.434713 4.7736449 3.5304041
28.425083 4.6802635 3.5273614
28.434748 4.5901532 3.5267532
28.449028 4.5007887 3.5267532
28.472836 4.4129152 3.5279701
28.515242 4.3328972 3.5316207
28.577803 4.2505822 3.5377057
28.645039 4.1686473 3.544399
28.736605 4.0898275 3.5541348
28.909948 3.9241991 3.5723891
45.241154 5.9962702 5.5907187
36.991081 4.784606 4.5684719
36.812019 4.4156322 4.54109
36.776417 4.2942114 4.5350051
36.77 4.1764178 4.5325713
36.778004 4.0603218 4.5319629
36.815254 3.9474106 4.5350051
36.862026 3.8353326 4.5392647
44.777435 3.9568861 5.5067487
44.755695 3.8054318 5.5024896
44.757534 3.6640048 5.5012722
44.778721 3.5241618 5.5024896
44.834106 3.3868382 5.5079656
44.903927 3.2502766 5.5152674
45.091831 2.9791861 5.5359554
45.142979 2.2710505 5.5371728
45.130058 2.1282892 5.534739
45.131565 1.9862621 5.5341301
45.122707 1.8438655 5.5323048
45.128277 1.7021053 5.5323048
53.074158 1.834852 6.5064821
53.074699 1.6679283 6.5058737
53.059834 1.5006269 6.5034399
53.05909 1.343079 6.502831
45.08477 0.99948972 5.524395
45.072948 0.84969515 5.5225687
45.065472 0.70794022 5.5213523
45.052685 0.55830741 5.519527
45.054142 0.42464459 5.519527
53.000603 0.33300343 6.4937043
52.996422 0.16648695 6.4930959
45.026367 -0 5.5158763
45.011253 -0.1414075 5.5140505
45.025528 -0.2750487 5.5158763
45.019478 -0.41645306 5.5152674
45.012886 -0.56567842 5.5146589
52.846241 -0.83017504 6.4754496
52.858429 -0.98724723 6.4772749
52.845146 -1.1530852 6.4760585
52.855915 -1.3286939 6.4778838
52.841557 -1.4944581 6.4766665
52.836601 -1.660457 6.4766665
52.826164 -1.8262683 6.4760585
52.820515 -1.9829985 6.4760585
52.809063 -2.1487269 6.4754496
52.796688 -2.3236182 6.4748411
52.789131 -2.4894722 6.4748411
52.776554 -2.6458409 6.4742327
52.767979 -2.81163 6.4742327
52.753414 -2.9863191 6.4736242
52.748722 -3.1523299 6.4742327
52.73798 -3.3272333 6.4742327
52.727875 -3.4836953 6.4742327
45.033192 -3.2517209 5.5310879
45.022755 -3.3931804 5.5310879
44.977238 -3.5318866 5.5268283
23.444611 -2.1418784 2.8817639
23.467796 -2.2142274 2.8854146
23.450844 -2.2869792 2.8841975
23.433668 -2.3596463 2.8829806
23.436012 -2.434279 2.8841975
23.433186 -2.5084217 2.8848062
23.43012 -2.5825703 2.8854146
23.421892 -2.6561654 2.8854146
23.398643 -2.7280102 2.8835893
23.370247 -2.7991447 2.8811553
23.33671 -2.8695223 2.8781128
23.317732 -2.9415801 2.8768959
23.293612 -3.0129104 2.8750706
23.313549 -3.0899868 2.8787212
23.323397 -3.1658833 2.8811553
23.347746 -3.2439208 2.8854146
33.9473 -3.1671243 2.9615872
33.937183 -3.2737572 2.9615872
33.916817 -3.3793702 2.960721
33.901077 -3.4853964 2.9602878
33.880054 -3.5908327 2.9594216
33.858704 -3.6961708 2.958555
33.837025 -3.8014104 2.9576888
33.825596 -3.9017901 2.9576888
33.828011 -4.0097961 2.9589882
32.019901 -4.1018443 2.8039131
32.041428 -4.2069564 2.8069453
32.047802 -4.3102522 2.8086782
32.024235 -4.4095535 2.8078117
32.010223 -4.510139 2.8078117
27.158798 -4.0879903 2.3850372
26.6141 -4.0915465 2.3382549
26.094255 -4.0955839 2.2936382
25.559898 -4.0940328 2.2477221
25.099554 -4.1012139 2.2083037
24.644335 -4.1063623 2.1693182
24.180231 -4.1028037 2.1294668
23.774553 -4.1108518 2.0948131
23.329821 -4.1094785 2.056694
22.857626 -4.1745439 2.0172756
22.653404 -4.2108302 2.0003819
21.577971 -4.0811005 1.9063838
21.359602 -4.109345 1.8881906
20.660797 -4.1772065 1.8297125
20.501194 -4.2120194 1.8167175
19.541895 -4.0789552 1.7326825
19.373768 -4.1038871 1.7188209
14.683765 -4.1384835 1.3233361
14.623517 -4.1683779 1.3190044
14.615136 -4.2156792 1.3194376
14.61542 -4.268311 1.3207371
13.578728 -4.1022458 1.2302045
13.484789 -4.1201401 1.2228405
12.168571 -4.0975413 1.1132483
12.094334 -4.114892 1.1076173
11.954159 -4.1091466 1.0959216
11.725986 -4.113276 1.0772953
11.605018 -4.1118317 1.0673324
11.484174 -4.1096687 1.0573695
11.382197 -4.1135588 1.0491391
4.8696585 -1.7772247 0.44746524
4.8593769 -1.7907919 0.44703206
4.8443904 -1.8025751 0.44616574
4.8293772 -1.8142817 0.44529936
4.8236537 -1.8294446 0.44529936
4.8135519 -1.8419684 0.44486618
4.8077416 -1.8570815 0.44486618
4.8018837 -1.8721762 0.44486618
4.7913432 -1.8854285 0.44443306
4.762249 -1.891279 0.44226718
4.7331653 -1.8969651 0.44010133
4.7087111 -1.904355 0.43836865
4.6842575 -1.9116101 0.43663597
4.6598048 -1.9187303 0.43490329
4.6445537 -1.9295379 0.43403691
4.6292815 -1.9402688 0.43317062
4.6185751 -1.9528625 0.43273741
4.6078353 -1.9654082 0.43230423
4.5970621 -1.9779058 0.43187106
4.5908256 -1.9923379 0.43187106
4.5799809 -2.0047534 0.43143791
4.5736604 -2.0191319 0.43143791
4.5672946 -2.0334904 0.43143791
4.5654273 -2.0498693 0.43187106
4.5589647 -2.0642018 0.43187106
4.5569887 -2.0805829 0.43230423
4.554955 -2.0969718 0.43273741
4.5532317 -2.1125739 0.43317062
4.5555959 -2.1310892 0.43403691
4.5620189 -2.1525614 0.43533647
4.5777249 -2.1775813 0.43750229
4.5888271 -2.2005675 0.43923497
4.5998297 -2.2236445 0.44096765
4.6111245 -2.2460077 0.44270033
4.6129889 -2.2648737 0.44356668
4.6326375 -2.2926109 0.44616574
4.6031246 -2.2960365 0.44399986
4.5825372 -2.3037741 0.44270033
4.5619469 -2.3114052 0.44140083
4.5413542 -2.3189297 0.44010133
4.5296173 -2.3309059 0.43966815
4.5266943 -2.3474178 0.44010133
4.5237122 -2.3639343 0.4405345
4.5250783 -2.382776 0.44140083
9.5073719 -5.0445223 0.93261623
9.5046558 -5.0814109 0.93391579
9.5018024 -5.1183329 0.93521535
9.4988089 -5.1552858 0.93651479
9.4956779 -5.1922717 0.93781435
9.4967709 -5.2316914 0.939547
9.4977102 -5.2711697 0.94127971
9.4984951 -5.3107052 0.94301242
9.4991236 -5.350297 0.94474506
9.4995985 -5.389946 0.94647777
9.499917 -5.4296498 0.94821042
9.5053511 -5.4702353 0.95037627
9.5010481 -5.507565 0.95167577
9.4923019 -5.5424099 0.95254213
9.4834309 -5.5772533 0.95340854
4.6175818 -2.834094 0.46782425
4.5747581 -2.8276346 0.46435887
4.5912256 -2.8577864 0.4669579
4.5991073 -2.8827782 0.46869057
4.6279387 -2.9211411 0.47258914
4.5977197 -2.9223058 0.47042325
4.6011024 -2.9447911 0.47172275
4.5750804 -2.9484379 0.46999007
4.5574379 -2.9573736 0.46912375
4.5439548 -2.9689519 0.46869057
4.5387664 -2.9859502 0.46912375
4.5335164 -3.0029454 0.46955693
4.5323482 -3.0227005 0.47042325
4.5311007 -3.0424781 0.47128963
4.5380268 -3.067857 0.47302231
4.536602 -3.0877037 0.47388864
4.5145521 -3.0934935 0.47258914
4.4433088 -3.0652332 0.46609157
4.3927436 -3.0507629 0.46175987
4.3953848 -3.0731106 0.46305937
4.4020023 -3.0983722 0.46479204
4.4735332 -3.1697831 0.47345543
4.3986688 -3.1375399 0.46652472
5.6390553 -4.0490885 0.60037446
4.4797935 -3.238066 0.47735399
4.4333482 -3.2257476 0.47345543
4.4874907 -3.2867529 0.4803862
4.4771428 -3.3008344 0.4803862
4.5387511 -3.3683167 0.48818326
4.4808426 -3.346004 0.4829852
4.3986359 -3.3061922 0.47518814
4.3916202 -3.3237665 0.47562131
4.3771939 -3.3345282 0.47518814
4.4220376 -3.390697 0.48125252
4.4389672 -3.4258761 0.4842847
4.4832554 -3.4825854 0.49034911
4.4879894 -3.5089252 0.49208179
4.4612856 -3.5106857 0.49034911
4.4072814 -3.4906642 0.48558426
5.0368972 -4.0671673 0.55965644
5.0124974 -4.0735459 0.55835688
4.9803972 -4.0735054 0.55619109
4.9598832 -4.0827999 0.55532467
4.9316888 -4.0856504 0.55359203
4.9035258 -4.0883641 0.55185932
4.8753943 -4.0909414 0.55012667
4.8434892 -4.0901685 0.54796082
4.815433 -4.0924616 0.54622811
4.7836251 -4.0913811 0.54406226
4.7518716 -4.0901413 0.5418964
4.7239385 -4.0920038 0.5401637
4.692286 -4.0904589 0.5379979
4.6606898 -4.0887547 0.53583205
4.6291509 -4.0868926 0.53366619
4.6013937 -4.0881815 0.53193349
4.5699606 -4.0860162 0.52976763
4.5422897 -4.0870261 0.52803493
4.514658 -4.0879021 0.52630228
4.4870658 -4.0886455 0.52456957
4.4595132 -4.0892558 0.52283692
4.4283404 -4.0863552 0.52067107
4.4008803 -4.086689 0.51893836
4.3734622 -4.0868907 0.51720566
4.3460865 -4.0869603 0.51547301
4.3187537 -4.0868983 0.5137403
4.2914639 -4.0867057 0.51200765
4.2642183 -4.0863814 0.51027495
4.2370172 -4.085927 0.5085423
4.2098608 -4.0853419 0.50680959
4.1827507 -4.0846267 0.50507694
4.1556864 -4.0837817 0.50334424
4.1286688 -4.0828071 0.50161153
4.1016984 -4.0817027 0.49987888
4.0782957 -4.0839944 0.49857932
4.0514107 -4.0826435 0.49684665
4.0245743 -4.0811644 0.49511397
4.0012741 -4.0831146 0.49381447
3.9745262 -4.0813899 0.49208179
3.9512928 -4.0831175 0.49078229
3.9246349 -4.0811491 0.48904961
3.9014697 -4.0826545 0.48775008
3.8749039 -4.0804434 0.48601738
3.8518097 -4.081728 0.48471788
3.8253381 -4.0792747 0.4829852
3.8023164 -4.0803399 0.4816857
3.7759411 -4.0776458 0.47995302
3.7529933 -4.0784917 0.47865352
3.7307897 -4.0785823 0.47735399
3.7079065 -4.0792246 0.47605449
3.6843445 -4.0804071 0.47475499
3.6615272 -4.0808387 0.47345543
3.6380315 -4.0818028 0.47215593
3.6159952 -4.0813937 0.47085643
3.5932808 -4.0815177 0.46955693
3.570601 -4.0815387 0.4682574
3.5479572 -4.0814576 0.4669579
3.5220928 -4.0775056 0.46522522
3.4995327 -4.0772109 0.46392572
3.4770093 -4.0768147 0.46262619
3.4577436 -4.0801177 0.46175987
3.4352829 -4.0795298 0.46046036
3.4128599 -4.0788407 0.4591608
3.3936605 -4.081882 0.45829451
3.3713028 -4.0810027 0.45699501
3.348984 -4.0800228 0.45569545
3.3274169 -4.0783629 0.45439595
3.3051775 -4.0771875 0.45309645
3.2829783 -4.075913 0.45179692
3.2608199 -4.0745392 0.45049742
3.2418034 -4.0769658 0.44963109
3.2197154 -4.0754037 0.44833156
3.2007451 -4.0776625 0.44746524
3.1787291 -4.0759139 0.44616574
3.1598065 -4.0780048 0.44529936
3.1378639 -4.0760708 0.44399986
3.1189904 -4.0779948 0.4431335
3.0971227 -4.0758753 0.441834
3.075299 -4.0736585 0.4405345
3.0565085 -4.0753298 0.43966815
3.0347619 -4.0729289 0.43836865
3.0160241 -4.0744352 0.43750229
2.9965956 -4.0763879 0.43663597
2.9749615 -4.0737138 0.43533647
2.9562986 -4.0749755 0.43447012
2.9347451 -4.0721197 0.43317062
2.9132383 -4.0691686 0.43187106
2.8917797 -4.066123 0.43057156
2.871078 -4.0624814 0.42927206
2.846853 -4.0551739 0.42753938
2.8227022 -4.0477543 0.4258067
2.8014627 -4.0443177 0.4245072
2.7823901 -4.0453768 0.42364085
2.7612379 -4.041759 0.42234135
2.7429326 -4.04217 0.42147496
2.7246523 -4.0425062 0.42060867
2.709168 -4.0469069 0.42017549
2.6964407 -4.055398 0.42017549
2.6898878 -4.0716925 0.42104179
2.6798155 -4.0842876 0.42147496
2.6704056 -4.0963941 0.42190817
2.6587961 -4.1098728 0.42234135
2.6485641 -4.1223965 0.42277452
2.6356001 -4.1306968 0.42277452
2.6226101 -4.1389561 0.42277452
2.6042883 -4.1387429 0.42190817
2.5886335 -4.1426797 0.42147496
2.5729797 -4.1465588 0.42104179
2.5547142 -4.1461401 0.42017549
2.5364766 -4.1456475 0.41930911
2.520854 -4.1493387 0.41887599
2.50266 -4.1487074 0.41800961
2.4844952 -4.1480026 0.41714329
2.4663596 -4.1472244 0.41627693
2.4457207 -4.1420846 0.41497743
2.4276574 -4.1411529 0.41411108
2.4096243 -4.1401491 0.41324475
2.3916216 -4.1390724 0.4123784
2.3736496 -4.1379242 0.41151208
2.3581731 -4.1410322 0.4110789
2.3402493 -4.1397476 0.41021255
2.3223569 -4.1383915 0.40934622
2.3069203 -4.1413155 0.40891305
2.289078 -4.1398239 0.40804672
2.2736642 -4.1426282 0.40761355
2.2487242 -4.1278791 0.40544766
2.1709247 -4.0453658 0.39591789
2.1488388 -4.0345802 0.39418522
2.1314976 -4.0325036 0.39331889
2.1234465 -4.0480018 0.39418522
2.1061187 -4.0458164 0.39331889
2.0933981 -4.052413 0.39331889
2.0806568 -4.0589695 0.39331889
2.0656364 -4.0610461 0.39288571
2.0506237 -4.0630684 0.39245254
2.0356188 -4.0650373 0.39201939
2.0206215 -4.0669513 0.39158621
2.0034304 -4.064343 0.39071986
1.9884639 -4.0661426 0.39028671
1.9713311 -4.063406 0.38942036
1.9563956 -4.0650902 0.38898718
1.9393232 -4.0622263 0.38812086
1.9244198 -4.063797 0.38768768
1.9066995 -4.0611377 0.38682133
1.891829 -4.0625925 0.38638818
1.8748794 -4.0594711 0.38552183
1.8600426 -4.0608125 0.38508865
1.8452159 -4.0621009 0.38465551
1.8303995 -4.0633359 0.38422233
1.8135618 -4.0599699 0.38335595
1.7987809 -4.0610933 0.38292283
1.7840108 -4.0621634 0.38248965
1.7692516 -4.0631809 0.38205644
1.7545036 -4.064146 0.38162327
1.7378074 -4.0604792 0.38075697
1.7230968 -4.0613327 0.38032377
1.7083982 -4.0621343 0.37989059
1.6944209 -4.0625882 0.37945747
1.6797465 -4.0632882 0.37902427
1.6631958 -4.0593262 0.37815791
1.648561 -4.0599165 0.37772477
1.6339387 -4.0604544 0.37729159
1.6174842 -4.0563135 0.37642524
1.6021947 -4.0570216 0.37599206
1.5876263 -4.0573964 0.37555891
1.5730712 -4.0577197 0.37512574
1.5567439 -4.0533414 0.37425938
1.5422311 -4.0535569 0.37382624
1.5277321 -4.0537205 0.37339306
1.5132474 -4.0538335 0.37295988
1.498777 -4.053895 0.37252671
1.4843215 -4.0539064 0.37209356
1.4698805 -4.0538664 0.37166038
1.4554543 -4.0537758 0.3712272
1.4427118 -4.0583286 0.3712272
1.4283013 -4.0581422 0.37079403
1.4139063 -4.0579057 0.37036088
1.3995268 -4.0576186 0.3699277
1.3851632 -4.057281 0.36949453
1.3708154 -4.0568933 0.36906132
1.3564839 -4.0564561 0.3686282
1.3421686 -4.0559688 0.36819503
1.3278697 -4.0554314 0.36776182
1.3135874 -4.0548439 0.36732864
1.2993221 -4.0542073 0.36689553
1.2843666 -4.0537453 0.36646232
1.2701354 -4.0530066 0.36602914
1.256629 -4.0519996 0.36559597
1.2424325 -4.0511651 0.36516279
1.2296993 -4.0550485 0.36516279
1.2155234 -4.0541205 0.36472964
1.2006578 -4.0533528 0.36429647
1.1865182 -4.0523243 0.36386329
1.1737815 -4.0560317 0.36386329
1.1596637 -4.0549102 0.36343011
1.1455646 -4.05374 0.36299697
1.1314842 -4.0525212 0.36256379
1.1181298 -4.0510588 0.36213061
1.1040874 -4.0497456 0.36169744
1.0900643 -4.0483847 0.36126429
1.0760604 -4.0469751 0.36083111
1.0620763 -4.0455174 0.36039793
1.0481119 -4.0440121 0.35996476
1.0346956 -4.0474658 0.35996476
1.0207571 -4.0458665 0.35953161
1.0080416 -4.0490537 0.35953161
0.99412793 -4.0473628 0.35909843
0.98140782 -4.0504661 0.35909843
0.9675203 -4.0486841 0.35866526
0.95365363 -4.0468554 0.35823208
0.94093531 -4.0498314 0.35823208
0.92709583 -4.0479121 0.35779893
0.91327751 -4.0459456 0.35736576
0.90056229 -4.0487952 0.35736576
0.88677192 -4.0467386 0.35693258
0.87405431 -4.0495043 0.35693258
0.86029243 -4.047358 0.35649937
0.84757304 -4.0500407 0.35649937
0.83384037 -4.0478048 0.35606626
0.82111967 -4.0504045 0.35606626
0.80741656 -4.048079 0.35563308
0.79373616 -4.0457077 0.35519987
0.78102225 -4.0481811 0.35519987
0.76666665 -4.0458546 0.3547667
0.75395244 -4.048243 0.3547667
0.74123079 -4.0505919 0.3547667
0.72762054 -4.0479975 0.35433352
0.71489978 -4.0502634 0.35433352
0.70132166 -4.0475817 0.35390037
0.68860233 -4.0497651 0.35390037
0.67505664 -4.0469952 0.3534672
0.66233927 -4.0490956 0.3534672
0.64961541 -4.0511565 0.3534672
0.63611192 -4.0482564 0.35303402
0.62339079 -4.0502348 0.35303402
0.60992122 -4.0472479 0.35260084
0.59647661 -4.0442162 0.3521677
0.58376843 -4.0460701 0.3521677
0.57035857 -4.0429516 0.35173452
0.55765444 -4.0447235 0.35173452
0.54494482 -4.0464554 0.35173452
0.53158051 -4.0432086 0.35130134
0.51887578 -4.0448589 0.35130134
0.50554758 -4.0415263 0.35086817
0.49284828 -4.0430946 0.35086817
0.47885227 -4.0397601 0.35043502
0.46615863 -4.041245 0.35043502
0.45290512 -4.0377388 0.35000184
0.44021794 -4.0391421 0.35000184
0.42700228 -4.0355515 0.34956867
0.41381353 -4.0319176 0.34913549
0.40114483 -4.0331979 0.34913549
0.3884722 -4.0344381 0.34913549
0.37625757 -4.0405984 0.34956867
0.40948346 -5.2975397 0.45872769
0.39376375 -5.2987313 0.45872769
0.37676179 -5.2949734 0.45829451
0.36046323 -5.3011007 0.45872769
0.34606376 -5.3370023 0.46175987
0.32871401 -5.6325173 0.48731694
0.31348935 -5.6782851 0.49121547
0.29564893 -5.6792417 0.49121547
0.27780563 -5.6801424 0.49121547
0.25995955 -5.6809874 0.49121547
0.24211092 -5.681776 0.49121547
0.2242599 -5.6825085 0.49121547
0.20640667 -5.6831851 0.49121547
0.18838625 -5.6788268 0.49078229
0.17054474 -5.6793904 0.49078229
0.15270157 -5.6798983 0.49078229
0.13386527 -5.6803737 0.49078229
0.11601919 -5.6807661 0.49078229
0.099163711 -5.6810851 0.49078229
0.081244275 -5.6763878 0.49034911
0.063410975 -5.6766152 0.49034911
0.045577049 -5.6767864 0.49034911
0.027742675 -5.6769013 0.49034911
0.0099080242 -5.6769609 0.49034911
-0.0089091714 -5.6719809 0.48991594
-0.026728183 -5.6719251 0.48991594
-0.044507813 -5.6668324 0.48948279
-0.062310472 -5.6666646 0.48948279
-0.080042101 -5.6614599 0.48904961
-0.097999834 -5.6711411 0.48991594
-0.11581577 -5.6708055 0.48991594
-0.13327849 -5.6554742 0.48861644
-0.16800305 -5.5947485 0.48341838
-0.18541348 -5.5892143 0.4829852
-0.20532191 -5.6533175 0.48861644
-0.22327775 -5.6576219 0.48904961
-0.24105059 -5.6568923 0.48904961
-0.25904876 -5.6610832 0.48948279
-0.27634564 -5.650291 0.48861644
-0.29362515 -5.6593952 0.48948279
-0.30921346 -5.6186552 0.48601738
-0.34237549 -5.5817986 0.4829852
-0.36216882 -5.6005158 0.48471788
-0.37875038 -5.5844412 0.48341838
-0.39911395 -5.622973 0.48688376
-0.41751361 -5.6316266 0.48775008
-0.4363555 -5.6451864 0.48904961
-0.45528668 -5.6586833 0.49034911
-0.47446525 -5.662106 0.49078229
-0.49268249 -5.6655502 0.49121547
-0.50949013 -5.6640635 0.49121547
-0.52774364 -5.6673942 0.49164861
-0.54653472 -5.6656132 0.49164861
-0.56284946 -5.6489983 0.49034911
-0.56363004 -5.1631198 0.44833156
-0.57873547 -5.1514235 0.44746524
-0.59491563 -5.14958 0.44746524
-0.61050338 -5.1427393 0.44703206
-0.62665671 -5.1407957 0.44703206
-0.64280391 -5.1388016 0.44703206
-0.65894479 -5.1367569 0.44703206
-0.67507911 -5.1346612 0.44703206
-0.69120681 -5.1325154 0.44703206
-0.70732766 -5.1303186 0.44703206
-0.72344154 -5.1280708 0.44703206
-0.73954827 -5.125773 0.44703206
-0.75654215 -5.1232924 0.44703206
-0.77263367 -5.1208901 0.44703206
-0.78947628 -5.1233611 0.44746524
-0.80556786 -5.1208553 0.44746524
-0.82165152 -5.1182995 0.44746524
-0.83853209 -5.1206088 0.44789842
-0.85461485 -5.117949 0.44789842
-0.87152493 -5.1201491 0.44833156
-0.88760537 -5.1173859 0.44833156
-0.90541112 -5.124383 0.44919792
-0.92238748 -5.1264157 0.44963109
-1.0886456 -5.6426487 0.49641353
-1.107326 -5.6440883 0.49684665
-1.1260263 -5.6454668 0.49727982
-1.1457359 -5.6516657 0.49814621
-1.1634855 -5.6480384 0.49814621
-1.1822438 -5.6492305 0.49857932
-1.2020077 -5.6501513 0.4990125
-1.220804 -5.651216 0.49944571
-1.2396189 -5.6522183 0.49987888
-1.2573698 -5.6482964 0.49987888
-1.2762059 -5.6491771 0.50031203
-1.2950598 -5.6499949 0.50074518
-1.3139309 -5.6507506 0.50117838
-1.3328202 -5.651443 0.50161153
-1.3505681 -5.6472278 0.50161153
-1.3694766 -5.6477981 0.50204474
-1.3884019 -5.6483049 0.50247788
-1.4061396 -5.6439152 0.50247788
-1.4226443 -5.6346407 0.50204474
-1.431697 -5.5963626 0.4990125
-1.4367743 -5.5436187 0.49468082
-1.4242018 -5.2893367 0.47302231
-1.4364901 -5.2653623 0.47128963
-1.4530246 -5.2608237 0.47128963
-1.470886 -5.2610297 0.47172275
-1.4874067 -5.2563829 0.47172275
-1.5052842 -5.2564731 0.47215593
-1.5231768 -5.2565026 0.47258914
-1.5410838 -5.2564716 0.47302231
-1.5590062 -5.2563796 0.47345543
-1.5769434 -5.256227 0.47388864
-1.5948949 -5.2560134 0.47432181
-1.6113993 -5.250977 0.47432181
-1.6308403 -5.2554035 0.47518814
-1.6503252 -5.2597599 0.47605449
-1.6698534 -5.2640452 0.47692084
-1.4021982 -4.0197859 0.36689553
-1.4115089 -4.0059643 0.36602914
-1.4240866 -4.0015101 0.36602914
-1.4383355 -4.0017042 0.36646232
-1.4525998 -4.0018482 0.36689553
-1.4651648 -3.9972651 0.36689553
-1.4794441 -3.9973135 0.36732864
-1.4937385 -3.9973123 0.36776182
-1.5080473 -3.9972606 0.36819503
-1.5223707 -3.9971583 0.3686282
-1.536708 -3.9970047 0.36906132
-1.5510596 -3.9968014 0.36949453
-1.565425 -3.996547 0.3699277
-1.5798041 -3.9962418 0.37036088
-1.5941966 -3.9958851 0.37079403
-1.6086025 -3.9954782 0.3712272
-1.6230216 -3.9950197 0.37166038
-1.6374538 -3.9945102 0.37209356
-1.6525956 -3.9936607 0.37252671
-1.6670531 -3.993046 0.37295988
-1.6795888 -3.9877892 0.37295988
-1.6940565 -3.9870777 0.37339306
-1.7085363 -3.9863145 0.37382624
-1.7230278 -3.9854991 0.37425938
-1.7395222 -3.9891984 0.37512574
-1.7540514 -3.9882739 0.37555891
-1.7706116 -3.9918501 0.37642524
-1.7851777 -3.9908149 0.37685841
-1.7997547 -3.9897277 0.37729159
-1.8143425 -3.9885881 0.37772477
-1.8296367 -3.9870765 0.37815791
-1.8442452 -3.9858298 0.37859109
-1.8588639 -3.9845304 0.37902427
-1.8756126 -3.9876857 0.37989059
-1.8902653 -3.9862745 0.38032377
-1.9049277 -3.9848106 0.38075697
-1.9195995 -3.9832938 0.38119015
-1.9342804 -3.9817238 0.38162327
-1.94897 -3.9801013 0.38205644
-1.9636689 -3.9784257 0.38248965
-1.9805951 -3.9811563 0.38335595
-1.9953253 -3.9793675 0.38378915
-2.0123105 -3.981971 0.38465551
-2.0270708 -3.980068 0.38508865
-2.0418391 -3.9781117 0.38552183
-2.0589037 -3.9805264 0.38638818
-2.0737009 -3.9784553 0.38682133
-2.0891998 -3.9759665 0.38725451
-2.1063423 -3.978188 0.38812086
-2.1211743 -3.9759459 0.38855404
-2.1383715 -3.9780374 0.38942036
-2.1532307 -3.9756799 0.38985354
-2.1704819 -3.9776406 0.39071986
-2.1853671 -3.9751675 0.39115304
-2.2033653 -3.976613 0.39201939
-2.2182751 -3.9740207 0.39245254
-2.2349379 -3.9761062 0.39331889
-2.2498724 -3.9733999 0.3937521
-2.2679739 -3.9745698 0.39461839
-2.2829316 -3.9717438 0.3950516
-2.3003895 -3.9731736 0.39591789
-2.3153698 -3.9702301 0.3963511
-2.3328772 -3.9715269 0.39721745
-2.3478787 -3.9684651 0.3976506
-2.3654342 -3.9696276 0.39851695
-2.3804569 -3.9664481 0.39895013
-2.3980594 -3.9674759 0.39981645
-2.4131017 -3.9641776 0.40024963
-2.4314423 -3.9646466 0.40111598
-2.4491203 -3.9654644 0.40198231
-2.4675202 -3.9657798 0.40284866
-2.4845638 -3.9668839 0.40371498
-2.5023286 -3.9674854 0.40458134
-2.5174508 -3.963809 0.40501449
-2.5359507 -3.9638312 0.40588084
-2.553786 -3.9642193 0.40674716
-2.5709569 -3.9649839 0.40761355
-2.5888467 -3.9652293 0.40847984
-2.6040275 -3.9612391 0.40891305
-2.621958 -3.9613464 0.4097794
-2.6399145 -3.9613798 0.41064572
-2.6578975 -3.9613395 0.41151208
-2.6759057 -3.961225 0.4123784
-2.6939397 -3.9610369 0.41324475
-2.7119987 -3.9607739 0.41411108
-2.7300828 -3.9604371 0.41497743
-2.7481914 -3.9600251 0.41584376
-2.7663243 -3.9595387 0.41671011
-2.784481 -3.958977 0.41757643
-2.8026617 -3.9583406 0.41844279
-2.8215559 -3.9571366 0.41930911
-2.8397832 -3.9563463 0.42017549
-2.8580327 -3.9554803 0.42104179
-2.8763053 -3.9545388 0.42190817
-2.8946002 -3.9535215 0.42277452
-2.9129164 -3.9524279 0.42364085
-2.9312549 -3.9512584 0.4245072
-2.949614 -3.9500124 0.42537352
-2.9709876 -3.9526718 0.42667302
-2.9894016 -3.9512637 0.42753938
-3.0078356 -3.9497783 0.4284057
-3.0262899 -3.9482164 0.42927206
-3.0478067 -3.9505212 0.43057156
-3.066313 -3.9487956 0.43143791
-3.0848374 -3.9469926 0.43230423
-3.106462 -3.9490268 0.43360379
-3.1250362 -3.9470592 0.43447012
-3.1436303 -3.945013 0.43533647
-3.1629293 -3.942337 0.43620279
-3.1846864 -3.9440076 0.43750229
-3.2033451 -3.9417143 0.43836865
-3.2251728 -3.9431987 0.43966815
-3.2438769 -3.9407384 0.4405345
-3.265774 -3.9420362 0.441834
-3.2845223 -3.9394081 0.44270033
-3.3064873 -3.9405181 0.44399986
-3.3291798 -3.9409471 0.44529936
-3.3479967 -3.9380593 0.44616574
-3.3707545 -3.9382882 0.44746524
-3.3914878 -3.9401853 0.44876474
-3.4110599 -3.9364462 0.44963109
-3.4332306 -3.9369736 0.4509306
-3.4521537 -3.9336555 0.45179692
-3.4743865 -3.9339924 0.45309645
-3.4933469 -3.9305036 0.45396277
-3.5156398 -3.9306486 0.4552623
-3.5379686 -3.930691 0.4565618
-3.5603313 -3.9306326 0.4578613
-3.5827296 -3.9304714 0.4591608
-3.6017938 -3.9265387 0.46002719
-3.624933 -3.9255517 0.46132669
-3.6474192 -3.9250915 0.46262619
-3.6692553 -3.925168 0.46392572
-3.6918068 -3.9245062 0.46522522
-3.7143905 -3.9237413 0.46652472
-3.7370069 -3.9228728 0.46782425
-3.7631004 -3.9254971 0.46955693
-3.7857897 -3.9244099 0.47085643
-3.8085082 -3.9232197 0.47215593
-3.8312573 -3.9219246 0.47345543
-3.8547201 -3.919853 0.47475499
-3.8775263 -3.9183462 0.47605449
-3.9010451 -3.9160531 0.47735399
-3.9267507 -3.9185355 0.47908667
-3.9496534 -3.9167018 0.4803862
-3.97613 -3.9182601 0.48211887
-3.9990971 -3.9162045 0.48341838
-4.0220895 -3.9140439 0.48471788
-4.0486894 -3.9152391 0.48645058
-4.071744 -3.9128554 0.48775008
-4.0984268 -3.9138048 0.48948279
-4.1215415 -3.9111967 0.49078229
-4.148304 -3.9118996 0.49251497
-4.1751122 -3.9124718 0.49424765
-4.1990018 -3.9087868 0.49554715
-4.2258868 -3.9091065 0.49727982
-4.2491488 -3.9059236 0.49857932
-4.2761097 -3.9059939 0.50031203
-4.3031135 -3.9059319 0.50204474
-4.3264589 -3.9024036 0.50334424
-4.3535352 -3.9020903 0.50507694
-4.380651 -3.9016466 0.50680959
-4.4078078 -3.9010696 0.5085423
-4.4350028 -3.9003618 0.51027495
-4.4622378 -3.8995202 0.51200765
-4.4895105 -3.8985469 0.5137403
-4.5168219 -3.8974395 0.51547301
-4.5441689 -3.8961999 0.51720566
-4.5715542 -3.8948257 0.51893836
-4.6027761 -3.8965375 0.52110422
-4.6302419 -3.8948851 0.52283692
-4.6577435 -3.8930969 0.52456957
-4.6852784 -3.8911755 0.52630228
-4.7166901 -3.8922889 0.52846813
-4.7449813 -3.889257 0.53020084
-4.7764878 -3.8900595 0.53236669
-4.8080468 -3.8907011 0.53453255
-4.8357739 -3.8880625 0.53626519
-4.867424 -3.8883955 0.53843105
-4.8913202 -3.882376 0.53973055
-4.9152274 -3.8762431 0.54103005
-4.9352217 -3.8669274 0.5418964
-4.9591384 -3.8605828 0.54319596
-4.9791217 -3.8510799 0.54406226
-8.0518436 -6.1471968 0.87760365
-8.0711164 -6.1218696 0.87760365
-8.0347071 -6.0129156 0.86937338
-7.5127096 -5.5125809 0.80699682
-7.4776635 -5.4508066 0.80136561
-6.2359953 -4.5157671 0.66621637
-6.0020742 -4.2607231 0.63676077
-5.9950752 -4.2274938 0.63459492
-5.9642754 -4.1499128 0.6285305
-5.9281106 -4.0971684 0.6233325
-5.9039931 -4.0531521 0.61943394
-5.8920054 -4.017746 0.61683494
-5.896349 -3.9936297 0.61596859
-5.9006009 -3.9695246 0.61510223
-5.9047585 -3.9454334 0.61423588
-5.9095082 -3.9203234 0.61336958
-5.9093161 -3.893518 0.61207008
-5.9131832 -3.869478 0.61120373
-5.921133 -3.8481684 0.61077052
-5.949934 -3.8403521 0.61250323
-5.9871311 -3.8377705 0.61510223
-6.0327749 -3.8403411 0.61856759
-6.0742822 -3.8400023 0.62159979
-6.1200666 -3.8420873 0.62506515
-6.161696 -3.841289 0.62809736
-6.2033806 -3.840265 0.63112956
-6.2451186 -3.8390186 0.63416171
-6.2869115 -3.8375461 0.63719398
-6.3287544 -3.8358502 0.64022613
-6.3706498 -3.8339274 0.64325833
-6.4125948 -3.8317809 0.64629054
-6.4545894 -3.8294067 0.64932275
-6.5009227 -3.8293362 0.6527881
-6.5430193 -3.8264973 0.65582025
-6.5894709 -3.8259313 0.6592856
-6.635982 -3.8251126 0.66275102
-6.6825542 -3.8240376 0.66621637
-6.7298508 -3.8215334 0.66968173
-6.7765369 -3.8199413 0.67314714
-6.8232803 -3.8180916 0.6766125
-6.8700771 -3.8159876 0.68007785
-6.9169292 -3.8136253 0.68354321
-6.9682021 -3.8133991 0.68744177
-7.0151658 -3.8105087 0.69090712
-7.0665627 -3.8097265 0.69480562
-7.1180248 -3.8086567 0.69870412
-7.169549 -3.8073032 0.70260268
-7.2211351 -3.8056612 0.70650125
-7.2727809 -3.8037343 0.71039975
-7.3244858 -3.8015184 0.71429831
-7.3762474 -3.799017 0.71819687
-7.4369364 -3.8007615 0.72296178
-7.4843817 -3.7954011 0.72642714
-7.5369763 -3.7907038 0.73032558
-7.6581922 -3.7932343 0.73985541
-7.7103066 -3.7889276 0.74375391
-7.7669463 -3.7865157 0.74808568
-7.8236461 -3.7837827 0.75241727
-7.8804054 -3.7807331 0.75674903
-7.937223 -3.7773616 0.76108074
-7.9986 -3.775799 0.76584566
-8.0555344 -3.7717731 0.7701773
-8.1222162 -3.7702062 0.77537537
-8.2454319 -3.7646129 0.78490508
-8.3162088 -3.7654016 0.79053634
-8.4398155 -3.7576478 0.80006605
-8.5062609 -3.7552569 0.80526417
-8.5682116 -3.7504852 0.81002897
-8.6393547 -3.74933 0.81566024
-8.7059984 -3.7457931 0.82085824
-8.7772875 -3.7438314 0.82648951
-8.848649 -3.7414556 0.83212072
-8.9200811 -3.7386711 0.83775198
-8.9961834 -3.7373827 0.84381634
-9.0684099 -3.7321742 0.84944749
-9.1446619 -3.730006 0.85551196
-9.2203379 -3.7290037 0.86157632
-9.2967396 -3.7259605 0.86764067
-9.3732119 -3.7224767 0.87370509
-9.4543886 -3.7203703 0.88020265
-9.531002 -3.7159832 0.88626701
-9.6123285 -3.7129436 0.89276457
-9.6990299 -3.709518 0.89969534
-9.7805071 -3.7055025 0.9061929
-9.8667173 -3.7027617 0.91312361
-9.9530067 -3.6995127 0.92005438
-10.039371 -3.6957605 0.92698509
-10.130491 -3.6932054 0.934349
-10.221693 -3.6901166 0.94171286
-10.312975 -3.6864882 0.94907677
-10.404333 -3.6823254 0.95644069
-10.500468 -3.6792688 0.96423775
-10.596684 -3.6756468 0.97203475
-10.693623 -3.6695886 0.97983187
-10.794714 -3.6664116 0.98806214
-10.891167 -3.6610513 0.99585921
-10.992419 -3.6566901 1.0040895
-11.079556 -3.647059 1.0110202
-11.138322 -3.6276577 1.0153519
-11.230263 -3.6186199 1.0227157
-12.040454 -3.6306415 1.0902904
-12.230259 -3.6041999 1.1054513
-16.272621 -3.4321465 1.4428911
-16.410131 -3.4073353 1.4541537
-18.504658 -3.7816358 1.6391176
-18.479187 -3.6556265 1.6347858
-18.451466 -3.5899417 1.6313205
-18.457758 -3.5310233 1.6308873
-18.488342 -3.4766991 1.63262
-18.484478 -3.4158862 1.6313205
-18.495119 -3.3577962 1.6313205
-18.500671 -3.2988033 1.6308873
-18.506039 -3.239804 1.6304542
-18.501398 -3.1791215 1.6291547
-18.516205 -3.1218126 1.6295878
-18.5756 -3.068511 1.6339194
-4.0501313 -0.6559779 0.3534672
-4.0471401 -0.64317638 0.35303402
-4.0491405 -0.63045925 0.35303402
-4.0462847 -0.61627811 0.35260084
-4.0432744 -0.60282826 0.3521677
-4.0402188 -0.58940446 0.35173452
-4.0371194 -0.57600468 0.35130134
-4.0339756 -0.56263131 0.35086817
-4.0307879 -0.54928231 0.35043502
-4.0324936 -0.53661704 0.35043502
-4.0292196 -0.52330387 0.35000184
-4.0308437 -0.51064366 0.35000184
-4.0274844 -0.49736679 0.34956867
-4.029027 -0.48471215 0.34956867
-4.03053 -0.47205168 0.34956867
-4.0319929 -0.4593876 0.34956867
-4.0284653 -0.44617063 0.34913549
-4.0298471 -0.43351209 0.34913549
-4.0262351 -0.42033318 0.34870234
-4.0275359 -0.40768176 0.34870234
-4.0287967 -0.3950274 0.34870234
-4.0250587 -0.38189757 0.34826916
-4.0262389 -0.36925113 0.34826916
-4.027379 -0.35659996 0.34826916
-4.0284796 -0.34394637 0.34826916
-4.0295401 -0.33128828 0.34826916
-4.0255952 -0.31823546 0.34783599
-4.0265751 -0.30558655 0.34783599
-4.0275149 -0.29293573 0.34783599
-4.0284157 -0.28028095 0.34783599
-4.0292764 -0.26762444 0.34783599
-4.0301414 -0.25426126 0.34783599
-4.0309205 -0.24159838 0.34783599
-4.0266461 -0.22935422 0.34740281
-4.0273471 -0.21670353 0.34740281
-4.0230689 -0.20309588 0.34696966
-4.0236869 -0.19045657 0.34696966
-4.0242658 -0.1778143 0.34696966
-4.0248041 -0.16517137 0.34696966
-4.0252767 -0.15322788 0.34696966
-4.0257382 -0.14058188 0.34696966
-4.0261378 -0.12863679 0.34696966
-4.0215626 -0.1151422 0.34653649
-4.0219226 -0.10180542 0.34653649
-4.0222225 -0.08917021 0.34653649
-4.0175023 -0.076438285 0.34610331
-4.0177226 -0.063817091 0.34610331
-4.0179033 -0.051194191 0.34610331
-4.0130634 -0.038524043 0.34567013
-4.0131645 -0.025915906 0.34567013
-4.0132265 -0.013308582 0.34567013
-4.0132484 -0.00070005923 0.34567013
-4.0132308 0.011907402 0.34567013
-4.0131736 0.024515815 0.34567013
-4.0130768 0.037122916 0.34567013
-4.0129404 0.049730722 0.34567013
-4.0127645 0.062336966 0.34567013
-4.0125484 0.074943662 0.34567013
-4.0122933 0.087548554 0.34567013
-4.0119987 0.10015257 0.34567013
-4.0066848 0.11261673 0.34523696
-4.0063109 0.12520301 0.34523696
-4.0009198 0.1376179 0.34480381
-3.9954901 0.14999907 0.34437063
-3.9949992 0.16255106 0.34437063
-3.9894924 0.17488225 0.34393746
-2.3170838 0.1088657 0.19839214
-2.3217053 0.11639359 0.1988253
-3.9976153 0.21300468 0.34480381
-3.9969263 0.22556196 0.34480381
-3.9961979 0.2381181 0.34480381
-3.9904587 0.25035891 0.34437063
-3.9896524 0.2628946 0.34437063
-3.988807 0.27542663 0.34437063
-3.9928904 0.28831577 0.34480381
-3.9919648 0.30085784 0.34480381
-3.9909999 0.31339803 0.34480381
-3.9849741 0.32622361 0.34437063
-2.2498362 0.21267191 0.19319409
-2.249157 0.21973923 0.19319409
-2.2434995 0.22630385 0.19276091
-2.237823 0.23283571 0.19232775
-2.2370806 0.23986459 0.19232775
-2.2462182 0.24798492 0.19319409
-2.2454281 0.25504011 0.19319409
-2.2297728 0.26036024 0.19189458
-3.9633877 0.48804754 0.34393746
-3.9321833 0.49675006 0.34133843
-3.9355433 0.50974131 0.3417716
-3.9734259 0.52734494 0.34523696
-2.1889729 0.30452389 0.18886238
-2.1929369 0.31210136 0.18929555
-2.2215211 0.32329291 0.19189458
-2.2872877 0.35490873 0.19795895
-2.2615621 0.35819626 0.19579311
-2.2751777 0.36768311 0.19709261
-2.3133307 0.38131034 0.20055799
-2.3612444 0.39683133 0.2048897
-2.4090829 0.41265771 0.20922139
-2.3783326 0.41508523 0.20662238
-2.4015381 0.42691433 0.20878822
-2.3903821 0.43268213 0.20792188
-2.3841124 0.4392873 0.20748872
-2.3778245 0.44585672 0.20705554
-2.3666263 0.45145822 0.2061892
-2.3651962 0.45889065 0.2061892
-2.349082 0.46342689 0.2048897
-2.3329625 0.46786577 0.20359017
-2.3119578 0.47121379 0.20185749
-2.2958331 0.47544405 0.20055799
-2.2797043 0.47957823 0.19925848
-2.2684441 0.48465595 0.19839214
-2.2474384 0.48755619 0.19665945
-2.2215724 0.48925731 0.19449359
-2.1908569 0.48971477 0.19189458
-2.160161 0.48998356 0.18929555
-2.1294849 0.49006495 0.18669653
-2.108532 0.4922227 0.18496385
-2.0924332 0.49540183 0.18366432
-2.0860233 0.50080985 0.18323116
-2.0941195 0.50971663 0.18409751
-2.2213502 0.55549204 0.19579311
-2.2340796 0.56613892 0.19709261
-2.2274654 0.57191569 0.19665945
-2.1774499 0.56637168 0.19232775
-2.1034074 0.55417329 0.18583019
-2.0920303 0.55821055 0.18496385
-2.1095014 0.56997699 0.18669653
-2.1461375 0.5871169 0.19016188
-2.1826866 0.60449195 0.19362725
-2.2047582 0.61806923 0.19579311
-2.1884294 0.62091339 0.19449359
-2.1864679 0.6277858 0.19449359
-2.1797016 0.63326174 0.19406043
-2.1824801 0.64151132 0.19449359
-2.1852288 0.64978409 0.19492677
-2.1879466 0.658081 0.19535993
-2.1858685 0.66495109 0.19535993
-2.1885297 0.67327988 0.19579311
-2.1864038 0.68015176 0.19579311
-2.1890078 0.68851203 0.19622627
-2.1868341 0.69538528 0.19622627
-2.1893809 0.70377672 0.19665945
-2.1917722 0.71257263 0.19709261
-2.1895227 0.71945506 0.19709261
-2.1968336 0.72908634 0.19795895
-2.2134233 0.74231946 0.19969165
-2.2818453 0.77324998 0.2061892
-2.3406694 0.80138999 0.21182042
-2.3852155 0.8250227 0.21615212
-2.3496952 0.82101023 0.21311994
-2.3563535 0.83211499 0.21398628
-2.3584192 0.84118724 0.21441944
-2.3603029 0.85069251 0.21485262
-2.3625996 0.85898191 0.21528578
-2.3645654 0.86811709 0.21571895
-2.3805091 0.88246667 0.21745165
-2.4010503 0.89867157 0.21961749
-2.4261734 0.91677439 0.22221653
-2.4418976 0.9314937 0.22394921
-2.4389591 0.93916023 0.22394921
-2.4313536 0.94501352 0.22351603
-2.4051871 0.94355106 0.22135016
-3.934917 1.5722613 0.36516279
-3.9391975 1.5883416 0.36602914
-3.9388025 1.6025859 0.36646232
-3.9429641 1.618736 0.36732864
-3.9424615 1.633021 0.36776182
-3.9419081 1.6473187 0.36819503
-3.9413033 1.6616302 0.3686282
-3.9406474 1.6759528 0.36906132
-3.9399405 1.6902889 0.36949453
-3.9391825 1.704636 0.3699277
-3.9383731 1.718996 0.37036088
-3.9375122 1.7333667 0.37079403
-3.9365997 1.74775 0.3712272
-3.9310899 1.7601081 0.3712272
-3.9300807 1.7744997 0.37166038
-2.8228655 1.2852638 0.26639992
-2.8097596 1.2899694 0.26553357
-2.801173 1.2966974 0.26510042
-2.7880578 1.301278 0.26423407
-2.6310945 1.2487727 0.24993944
-2.5689595 1.2286345 0.24430822
-2.5740604 1.2410259 0.24517456
-3.9321051 1.911024 0.37685841
-3.9305551 1.9255596 0.37729159
-3.9289532 1.9401033 0.37772477
-3.9272976 1.9546568 0.37815791
-3.9211378 1.9669846 0.37815791
-3.9104936 1.9770467 0.37772477
-2.5644913 1.3270354 0.24777357
-2.5868104 1.348904 0.25037259
-2.5825596 1.3570244 0.25037259
-2.5738819 1.3627999 0.24993944
-2.5520082 1.361501 0.24820676
-2.5652683 1.3789451 0.24993944
-2.6047239 1.41072 0.25427115
-2.6133971 1.4260538 0.25557065
-2.4693027 1.36763 0.24214235
-2.4345446 1.3583916 0.23911017
-2.3955274 1.346507 0.23564482
-2.4042888 1.3613895 0.23694432
-2.456249 1.4010195 0.24257554
-2.4950256 1.433545 0.24690723
-2.4258413 1.4039493 0.24040967
-2.3912952 1.3940032 0.23737749
-2.3611312 1.3863755 0.23477846
-2.3439014 1.3861797 0.23347895
-2.266783 1.3502015 0.22611505
-3.8996794 2.3561518 0.39288571
-2.4454467 1.4880247 0.24560773
-2.4492543 1.500905 0.24647407
-2.2916996 1.4242387 0.23131309
-2.2703245 1.4208606 0.2295804
-2.2995625 1.4492332 0.23304579
-2.3328502 1.4804714 0.23694432
-2.4415162 1.5602143 0.24863991
-2.4407918 1.570572 0.2490731
-2.4358454 1.5782325 0.2490731
-2.4016721 1.5668249 0.2460409
-2.388411 1.5688931 0.24517456
-2.3793161 1.5736406 0.2447414
-2.3785064 1.5838689 0.24517456
-2.3735189 1.591333 0.24517456
-2.3685076 1.5987821 0.24517456
-2.3675935 1.6090146 0.24560773
-2.3748598 1.6248833 0.24690723
-3.8839149 2.6743343 0.40674716
-3.8632131 2.6780088 0.40544766
-2.4005761 1.6752883 0.25123894
-2.3749223 1.6685039 0.2490731
-2.3287127 1.6476004 0.2447414
-2.2951238 1.63468 0.24170919
-2.2535434 1.6157595 0.23781066
-2.2040265 1.5907644 0.23304579
-2.1630235 1.5709522 0.22914726
-2.1580777 1.5777395 0.22914726
-2.1571221 1.5874641 0.2295804
-2.1561272 1.5971979 0.23001359
-2.1391187 1.5950311 0.22871406
-2.1181617 1.5897827 0.22698139
-2.0932841 1.5814166 0.22481555
-2.0761352 1.5793016 0.22351603
-2.0674849 1.5824271 0.22308287
-2.0822332 1.6041144 0.22524871
-2.1047387 1.632014 0.2282809
-2.1192353 1.6539419 0.23044674
-2.1414495 1.6821302 0.23347895
-2.1517842 1.7012069 0.23521163
-2.1113491 1.6800443 0.23131309
-2.0749562 1.661759 0.22784773
-2.0270653 1.6338836 0.22308287
-2.0141854 1.6339676 0.22221653
-2.0090423 1.640287 0.22221653
-2.0038791 1.6465908 0.22221653
-2.0025351 1.6560522 0.22264968
-3.8465569 3.2014201 0.43187106
-3.8632114 3.235878 0.43490329
-3.8454087 3.2415781 0.43403691
-3.8579972 3.2729771 0.43663597
-2.017947 1.7228808 0.22741456
-1.9445183 1.6707789 0.21961749
-3.8458183 3.3254831 0.43880183
-3.861656 3.3604376 0.441834
-3.8623214 3.3823984 0.4431335
-3.8591509 3.4011021 0.44399986
-3.8602242 3.422451 0.44529936
-3.8531697 3.4378781 0.44573256
-2.0855153 1.8725401 0.24040967
-2.0685341 1.8690645 0.23911017
-2.0589669 1.8722023 0.238677
-2.0420501 1.8685738 0.23737749
-2.0325058 1.8716053 0.23694432
-3.86076 3.5776079 0.45439595
-3.8531451 3.5931158 0.45482913
-3.849103 3.6120198 0.45569545
-3.8486009 3.6343548 0.45699501
-3.8479972 3.6567211 0.45829451
-3.8472898 3.6791203 0.45959398
-3.8464806 3.7015502 0.46089348
-3.8419893 3.7205472 0.46175987
-2.5384376 2.4745643 0.30495211
-1.9545974 1.9174272 0.23477846
-1.9450186 1.9200591 0.23434529
-2.6718016 2.6867659 0.32617745
-2.673852 2.7057753 0.32747698
-3.8240609 3.8941114 0.47128963
-3.8326824 3.927495 0.47388864
-3.82726 3.9466689 0.47475499
-3.8321252 3.9766068 0.47692084
-3.8368387 4.0066147 0.47908667
-3.827667 4.0222564 0.47951984
-2.6787345 2.8326831 0.33570722
-3.829608 4.0752664 0.4829852
-3.8269849 4.0981998 0.4842847
-3.8242567 4.1211562 0.48558426
-3.8180435 4.1404743 0.48645058
-2.5127616 2.742198 0.32011306
-2.4940734 2.7390289 0.31881356
-2.4787717 2.7394638 0.31794721
-2.4301877 2.7027884 0.31274918
-2.3115437 2.6017251 0.29932088
-2.3400855 2.6496415 0.30408576
-2.3542809 2.6835983 0.30711794
-2.3318117 2.6767762 0.30538526
-2.2973104 2.6539586 0.30191991
-2.2592688 2.6275694 0.29802135
-2.1312819 2.4945292 0.28199404
-2.0884023 2.4590774 0.27722916
-2.0774543 2.4618192 0.27679601
-2.1117566 2.517585 0.28242722
-2.2107391 2.6685293 0.29802135
-2.2529972 2.7369943 0.30495211
-2.2664626 2.7710493 0.30798429
-2.2671709 2.7897527 0.30928379
-2.2360065 2.7701232 0.30625162
-2.1026328 2.6217008 0.28892478
-2.0974905 2.6321886 0.28935796
-2.1324987 2.6934402 0.29542235
-2.1491413 2.7310717 0.2988877
-2.1497555 2.7495823 0.30018723
-2.147218 2.7641902 0.30105355
-2.1506972 2.7866955 0.30278623
-2.159626 2.8175328 0.30538526
-2.1507635 2.8243039 0.30538526
-2.1418805 2.8310463 0.30538526
-2.1060395 2.8019254 0.30148673
-2.0733838 2.7765977 0.29802135
-2.0349729 2.7430921 0.29368967
-2.0120447 2.7290716 0.29152381
-1.9946315 2.7233231 0.29022428
-1.9806798 2.7211747 0.28935796
-1.9662834 2.719311 0.28849161
-1.9523931 2.7170427 0.28762528
-1.9457896 2.7278962 0.28805843
-1.9228113 2.7136738 0.28589261
-1.9056748 2.7074811 0.28459308
-3.7772148 5.4407759 0.57265151
-2.560456 3.7143652 0.38898718
-1.9521605 2.8510592 0.29715502
-1.9319196 2.8588035 0.29672185
-3.7523413 5.626399 0.58478034
-2.421984 3.6815152 0.37989059
-2.4322035 3.7224655 0.38335595
-2.4828613 3.826195 0.39331889
-2.4453456 3.8207421 0.39115304
-2.4226429 3.8115895 0.38942036
-2.4053385 3.8107576 0.38855404
-2.3986461 3.8267362 0.38942036
-2.3839796 3.8300242 0.38898718
-2.3719358 3.8374944 0.38898718
-2.3572624 3.8406825 0.38855404
-2.3400006 3.8395615 0.38768768
-2.3208594 3.833704 0.38638818
-2.3036709 3.8324378 0.38552183
-2.2839618 3.8268239 0.38422233
-2.2693882 3.8296952 0.38378915
-2.2472425 3.8196325 0.38205644
-2.2176445 3.7965658 0.37902427
-2.2132034 3.8164406 0.38032377
-2.302881 4.0292063 0.40024963
-2.3042514 4.0628181 0.40284866
-2.2914767 4.0700369 0.40284866
-2.2592375 4.0424304 0.39938331
-2.2392778 4.0364399 0.39808378
-2.2176776 4.0256143 0.3963511
-2.2026296 4.0281911 0.39591789
-2.19401 4.04423 0.39678428
-2.1718483 4.0335593 0.3950516
-2.1927502 4.1014853 0.40111598
-2.1891923 4.1259546 0.40284866
-2.1994286 4.1768861 0.40718034
-2.1909091 4.1926055 0.40804672
-3.6531858 7.1543388 0.69523877
-5.7582765 11.454037 1.1115158
-5.7089219 11.445326 1.1089166
-5.6641016 11.445346 1.1071841
-5.6215291 11.449671 1.1058846
-5.5746264 11.444883 1.1037186
-5.5299735 11.4444 1.1019859
-5.4853821 11.443748 1.1002533
-5.4408455 11.442931 1.0985206
-5.3962421 11.4365 1.0963547
-5.3518424 11.435349 1.094622
-5.3075004 11.434034 1.0928894
-5.2632222 11.432551 1.0911567
-5.2170091 11.431816 1.089424
-5.1728554 11.429996 1.0876913
-5.1307554 11.427119 1.0859587
-5.0867281 11.424978 1.084226
-5.0427651 11.422674 1.0824933
-4.9968657 11.415645 1.0803274
-4.9550304 11.417578 1.079028
-4.9112601 11.414785 1.0772953
-4.8675599 11.411831 1.0755626
-2.3561738 5.6215858 0.52673542
-2.3270342 5.6013603 0.52413642
-2.324599 5.6454911 0.52760178
-2.2861478 5.602035 0.52283692
-2.2946844 5.6738391 0.52890134
-2.2916722 5.7180099 0.53236669
-2.2875721 5.7571883 0.53539884
-2.2822485 5.7967901 0.53843105
-2.2811072 5.8507361 0.54276276
-2.2860475 5.9182801 0.54839396
-2.2702587 5.9296885 0.54882717
-2.2516196 5.9367914 0.54882717
-2.2329569 5.9438362 0.54882717
-4.2328095 11.375603 1.0521713
-4.1918826 11.374824 1.0508718
-4.1492972 11.369219 1.0491391
-4.0929575 11.331381 1.0443742
-3.1078715 8.6895084 0.7991997
-3.085403 8.7080812 0.80006605
-3.0563829 8.7130308 0.79963291
-3.0371642 8.7461185 0.80179882
-3.9115982 11.379457 1.0430748
-3.8678055 11.368112 1.0409089
-3.8304842 11.375484 1.0404757
-3.7915773 11.378013 1.0396094
-3.7511351 11.375675 1.0383099
-3.348279 10.485222 0.95384169
-3.3198218 10.509938 0.95514113
-3.5139973 11.37297 1.0318123
-3.4758687 11.369055 1.0305128
-2.6574612 8.7908401 0.7953012
-2.6298296 8.7991457 0.7953012
-2.603586 8.8121414 0.79573435
-3.3187661 11.36402 1.0261811
-3.2789063 11.360033 1.0248816
-3.2404673 11.360698 1.0240153
-3.2007082 11.356438 1.0227157
-3.1610053 11.352042 1.0214163
-3.1213641 11.347507 1.0201167
-3.083086 11.347644 1.0192504
-3.0461316 11.352462 1.0188172
-3.0091748 11.357162 1.0183841
-2.9709604 11.356921 1.0175177
-2.9327743 11.356552 1.0166514
-2.8933926 11.351229 1.0153519
-2.2331128 8.8772821 0.7927022
-2.8160141 11.345013 1.013186
-2.1737394 8.8766232 0.7914027
-2.1458385 8.8834085 0.7914027
-2.7008841 11.33713 1.0101539
-2.6629772 11.33586 1.0092875
-2.6214554 11.309744 1.0062553
-2.5825846 11.303355 1.0049558
-2.542686 11.291975 1.0032231
-2.510437 11.314495 1.0045226
-2.4748745 11.322327 1.0045226
-2.4392939 11.330046 1.0045226
-2.4016228 11.327908 1.0036563
-2.3639891 11.325644 1.00279
-2.3263874 11.323256 1.0019236
-2.28883 11.320745 1.0010573
-2.2513118 11.318109 1.000191
-2.2138324 11.315348 0.99932456
-2.1763926 11.312463 0.99845821
-2.1399124 11.314351 0.998025
-2.1025376 11.311223 0.99715865
-2.0660987 11.312873 0.99672556
-2.0287905 11.309502 0.99585921
-1.9923819 11.310914 0.995426
-1.9551419 11.307301 0.99455965
-1.9187775 11.308475 0.9941265
-1.8843948 11.309206 0.99369329
-1.8472517 11.305239 0.99282706
-1.8109398 11.306067 0.99239385
-1.7738686 11.301858 0.9915275
-1.7368356 11.297529 0.99066114
-1.6998535 11.293078 0.98979485
-1.6636424 11.293435 0.98936164
-1.6267353 11.288745 0.98849529
-1.5905632 11.288867 0.98806214
-1.5537329 11.283938 0.98719579
-1.5176132 11.283827 0.98676258
-1.4815096 11.2836 0.98632938
-1.4447834 11.278318 0.98546314
-1.4087285 11.277859 0.98502994
