# .PCD v0.7 - Point Cloud Data file format
VERSION 0.7
FIELDS x y z
SIZE 4 4 4
TYPE F F F
COUNT 1 1 1
WIDTH 1449
HEIGHT 1
VIEWPOINT 0 0 0 1 0 0 0
POINTS 1449
DATA ascii
3.9252517 -4.2776613 -0.51067144
3.8916588 -4.26789 -0.50802547
3.8748872 -4.2764039 -0.50758445
3.8547683 -4.2811542 -0.50670248
3.8346577 -4.2858195 -0.50582045
3.8112466 -4.2866788 -0.50449747
3.7845705 -4.2837014 -0.50273353
3.7579508 -4.2805986 -0.50096953
3.7313881 -4.2773709 -0.49920556
3.7048829 -4.2740188 -0.49744159
3.6816866 -4.2743158 -0.49611861
3.6552861 -4.2707257 -0.49435464
3.6289444 -4.2670121 -0.49259067
3.6026626 -4.2631755 -0.4908267
3.5764406 -4.2592158 -0.48906273
3.5470884 -4.2513094 -0.48685774
3.5178216 -4.2432604 -0.48465276
3.491807 -4.2389145 -0.48288879
3.4658544 -4.234447 -0.48112479
3.4399648 -4.2298584 -0.47936082
3.4141381 -4.2251487 -0.47759685
3.3914933 -4.2242031 -0.47627386
3.3688884 -4.223156 -0.47495088
3.3463235 -4.2220092 -0.4736279
3.3207176 -4.2168498 -0.47186393
3.2982466 -4.2154937 -0.47054094
3.2727602 -4.2101059 -0.46877697
3.2503843 -4.2085409 -0.46745396
3.2341151 -4.2147808 -0.467013
3.2178383 -4.2209592 -0.46657199
3.1985476 -4.2231069 -0.46568999
3.1725504 -4.2177696 -0.46392602
3.1473589 -4.2117572 -0.46216202
3.1222365 -4.2056279 -0.46039805
3.0971837 -4.1993833 -0.45863408
3.0780885 -4.2010574 -0.45775211
3.0619442 -4.2066803 -0.45731112
3.0428767 -4.2082067 -0.45642909
3.0267358 -4.2137008 -0.45598814
3.0105903 -4.2191343 -0.45554712
2.9915605 -4.2204447 -0.45466512
2.9754195 -4.22575 -0.45422417
2.9592745 -4.2309952 -0.45378315
2.9402843 -4.2320905 -0.45290115
2.9241457 -4.2372079 -0.4524602
2.9051876 -4.2381573 -0.45157817
2.8890555 -4.2431464 -0.45113719
2.870131 -4.2439508 -0.45025522
2.8512297 -4.2446775 -0.44937319
2.8295882 -4.2411847 -0.44805023
2.8107479 -4.2417498 -0.44716823
2.7891941 -4.2380781 -0.44584525
2.7704163 -4.238482 -0.44496328
2.7509234 -4.2392893 -0.44408128
2.7321959 -4.2395382 -0.44319931
2.7108088 -4.2355156 -0.44187629
2.6921461 -4.2356048 -0.44099432
2.6735094 -4.2356176 -0.44011232
2.6548996 -4.2355556 -0.43923035
2.6363161 -4.2354188 -0.43834835
2.6151414 -4.2309704 -0.43702537
2.5966258 -4.2306757 -0.43614337
2.5755463 -4.2260537 -0.43482038
2.5571001 -4.2256021 -0.43393841
2.538682 -4.2250762 -0.43305641
2.5195553 -4.2249165 -0.43217444
2.5011947 -4.2242398 -0.43129244
2.4821262 -4.2239232 -0.43041047
2.4638245 -4.2230959 -0.42952847
2.4462893 -4.2217689 -0.42864645
2.4280474 -4.220799 -0.42776448
2.4105721 -4.2193351 -0.42688248
2.3923907 -4.2182231 -0.42600051
2.3735039 -4.2174525 -0.42511851
2.3553846 -4.2161927 -0.42423654
2.3372967 -4.21486 -0.42335454
2.3192408 -4.2134557 -0.42247257
2.2988286 -4.2076087 -0.42114958
2.2808502 -4.2060537 -0.42026758
2.2629044 -4.2044272 -0.41938561
2.2473381 -4.2071223 -0.4189446
2.229444 -4.2053609 -0.4180626
2.2115836 -4.2035289 -0.41718063
2.1960616 -4.2060413 -0.41673964
2.1782546 -4.2040749 -0.41585761
2.1597486 -4.2024159 -0.41497564
2.1420102 -4.2003064 -0.41409364
2.1265554 -4.2025709 -0.41365269
2.1088724 -4.2003288 -0.41277066
2.0912249 -4.1980176 -0.41188872
2.0736127 -4.1956367 -0.41100669
2.0553045 -4.1935453 -0.41012472
2.0377641 -4.1910233 -0.40924272
2.0209913 -4.1880798 -0.40836075
2.0056736 -4.1899161 -0.40791976
1.988228 -4.1871982 -0.40703773
1.9708195 -4.1844125 -0.40615577
1.9548252 -4.1864119 -0.40571478
1.9374774 -4.1834936 -0.40483275
1.9222462 -4.1850343 -0.4043918
1.9049598 -4.1819873 -0.4035098
1.8897619 -4.1834121 -0.40306878
1.872538 -4.1802382 -0.40218681
1.8573743 -4.1815486 -0.40174583
1.8422209 -4.1828046 -0.40130481
1.8250849 -4.1794434 -0.40042284
1.8099675 -4.1805854 -0.39998183
1.7928962 -4.1770978 -0.39909989
1.7758644 -4.1735435 -0.39821786
1.7608083 -4.1745129 -0.39777687
1.7438427 -4.1708341 -0.3968949
1.7288243 -4.1716909 -0.39645389
1.7119255 -4.1678877 -0.39557192
1.6969453 -4.1686325 -0.3951309
1.6801142 -4.1647048 -0.3942489
1.664446 -4.1656284 -0.39380792
1.6495178 -4.1662064 -0.39336693
1.6335098 -4.1618099 -0.39248493
1.6186218 -4.1622791 -0.39204392
1.6012307 -4.1583285 -0.39116195
1.5863839 -4.1586847 -0.39072096
1.5715507 -4.158989 -0.39027995
1.5567313 -4.1592412 -0.38983899
1.5419258 -4.1594415 -0.38939798
1.527135 -4.1595893 -0.38895699
1.5123578 -4.1596856 -0.38851598
1.4975954 -4.1597304 -0.38807502
1.4811751 -4.1550317 -0.38719299
1.4664567 -4.1549678 -0.38675201
1.4517535 -4.1548529 -0.38631102
1.4370654 -4.1546865 -0.38587004
1.4223926 -4.1544685 -0.38542902
1.4077355 -4.1541996 -0.38498804
1.3915105 -4.1491575 -0.38410607
1.3768998 -4.1487818 -0.38366506
1.3623053 -4.1483545 -0.38322404
1.3461881 -4.1431408 -0.38234207
1.330918 -4.1428404 -0.38190109
1.3163878 -4.1422544 -0.38146007
1.2996594 -4.137094 -0.3805781
1.2851781 -4.1364002 -0.38013712
1.2714355 -4.1354346 -0.3796961
1.2569891 -4.1346431 -0.37925509
1.24256 -4.1338019 -0.37881413
1.2281483 -4.1329112 -0.37837312
1.2137547 -4.1319704 -0.37793213
1.199379 -4.13098 -0.37749112
1.1850216 -4.1299405 -0.37705016
1.1720412 -4.1336432 -0.37705016
1.1577057 -4.1325088 -0.37660915
1.1433887 -4.1313252 -0.37616816
1.1290908 -4.1300926 -0.37572715
1.1148119 -4.1288114 -0.37528619
1.1005522 -4.1274805 -0.37484518
1.0863118 -4.1261015 -0.37440416
1.0733439 -4.1294937 -0.37440416
1.0591277 -4.1280208 -0.37396318
1.0449314 -4.1265001 -0.37352219
1.0307549 -4.1249304 -0.37308121
1.0158789 -4.1234899 -0.37264019
1.0017439 -4.1218214 -0.37219918
0.98762888 -4.1201043 -0.37175819
0.97353464 -4.1183405 -0.37131724
0.95946109 -4.116528 -0.37087622
0.94540864 -4.1146674 -0.37043521
0.93137729 -4.1127596 -0.36999422
0.9173674 -4.110805 -0.36955324
0.90266156 -4.1089597 -0.36911225
0.88869506 -4.1069074 -0.36867124
0.87475038 -4.1048079 -0.36823022
0.86082774 -4.1026616 -0.36778927
0.8479346 -4.1053457 -0.36778927
0.83404094 -4.1031084 -0.36734828
0.82016975 -4.1008244 -0.36690727
0.80728257 -4.1033812 -0.36690727
0.79344136 -4.101007 -0.36646625
0.77962315 -4.098587 -0.3660253
0.76582783 -4.0961204 -0.36558428
0.75295627 -4.098506 -0.36558428
0.73847711 -4.0960784 -0.3651433
0.72560525 -4.0983782 -0.3651433
0.71187335 -4.0957308 -0.36470228
0.69900274 -4.0979466 -0.36470228
0.68530327 -4.0952106 -0.36426133
0.67243439 -4.0973434 -0.36426133
0.6587677 -4.0945182 -0.36382031
0.64590114 -4.0965676 -0.36382031
0.63226795 -4.0936546 -0.3633793
0.61940426 -4.0956206 -0.3633793
0.6058051 -4.0926194 -0.36293831
0.5929448 -4.0945024 -0.36293831
0.57938033 -4.091414 -0.36249736
0.56652391 -4.093214 -0.36249736
0.55299461 -4.0900378 -0.36205634
0.5401426 -4.0917549 -0.36205634
0.526649 -4.0884919 -0.36161533
0.51380259 -4.090126 -0.36161533
0.49963185 -4.0868635 -0.36117435
0.48620126 -4.0834675 -0.36073333
0.47337025 -4.0849748 -0.36073333
0.45997688 -4.0814929 -0.36029238
0.44661 -4.0779667 -0.35985136
0.43379647 -4.0793495 -0.35985136
0.42046759 -4.075738 -0.35941035
0.4076612 -4.0770388 -0.35941035
0.39485079 -4.0782995 -0.35941035
0.3815721 -4.0745606 -0.35896936
0.36876959 -4.0757394 -0.35896936
0.35596347 -4.0768781 -0.35896936
0.34273621 -4.0730133 -0.35852841
0.32993877 -4.07407 -0.35852841
0.31675163 -4.0701208 -0.35808739
0.30396342 -4.0710959 -0.35808739
0.29117218 -4.0720305 -0.35808739
0.27803901 -4.0679564 -0.35764638
0.26525778 -4.0688095 -0.35764638
0.25247392 -4.069623 -0.35764638
0.23868509 -4.0654659 -0.35720539
0.22591187 -4.0661955 -0.35720539
0.21287578 -4.0619121 -0.35676441
0.20011386 -4.0625606 -0.35676441
0.18712056 -4.0581937 -0.35632342
0.17437044 -4.0587616 -0.35632342
0.16071269 -4.0543408 -0.35588241
0.14815645 -4.059803 -0.35632342
0.13523601 -4.0552707 -0.35588241
0.1229464 -4.07061 -0.35720539
0.10296437 -4.3053198 -0.37793213
0.075947203 -5.2423372 -0.46083906
0.059647039 -5.2574906 -0.46216202
0.043211561 -5.2676129 -0.46304405
0.026687862 -5.2727032 -0.46348503
0.010180415 -5.3026438 -0.466131
-0.0068617272 -5.6164217 -0.49391362
-0.025644861 -5.6512313 -0.49700058
-0.043436851 -5.6561031 -0.49744159
-0.061151914 -5.6509585 -0.49700058
-0.15049243 -5.6343389 -0.49567762
-0.16863835 -5.6487727 -0.49700058
-0.18638365 -5.6482153 -0.49700058
-0.20332025 -5.6526146 -0.49744159
-0.22088279 -5.6469712 -0.49700058
-0.23960786 -5.6462078 -0.49700058
-0.25689116 -5.6354766 -0.49611861
-0.27660316 -5.0261002 -0.44231731
-0.30695781 -5.0043788 -0.44055331
-0.322678 -5.0033894 -0.44055331
-0.33873117 -5.0073204 -0.44099432
-0.35727453 -5.0459762 -0.44452226
-0.37643147 -5.0895314 -0.44849125
-0.39471662 -5.1181178 -0.45113719
-0.41248518 -5.1267104 -0.45201918
-0.42858917 -5.1253891 -0.45201918
-0.4442583 -5.1190553 -0.45157817
-0.46033812 -5.1176343 -0.45157817
-0.47641337 -5.1161628 -0.45157817
-0.49248391 -5.1146412 -0.45157817
-0.50904256 -5.1180248 -0.45201918
-0.52562732 -5.1213551 -0.4524602
-0.54223794 -5.1246309 -0.45290115
-0.55887437 -5.1278534 -0.45334214
-0.57587612 -5.1259718 -0.45334214
-0.59254789 -5.1290851 -0.45378315
-0.60865849 -5.1271982 -0.45378315
-0.62174976 -5.1005411 -0.45157817
-0.80727786 -5.5883007 -0.49655959
-0.8219198 -5.5660286 -0.49479559
-0.84409189 -5.5878959 -0.49700058
-0.86543947 -5.609828 -0.49920556
-0.88130695 -5.6023154 -0.49876454
-0.89488846 -5.0648274 -0.45201918
-0.91167766 -5.0668931 -0.4524602
-0.93477023 -5.1031957 -0.45598814
-0.94623399 -5.0757532 -0.45378315
-0.96770573 -5.0970531 -0.45598814
-0.9856025 -5.1037679 -0.45687011
-1.0025913 -5.1055336 -0.45731112
-1.0186259 -5.1023583 -0.45731112
-1.0346503 -5.099133 -0.45731112
-1.0506647 -5.0958576 -0.45731112
-1.0666686 -5.0925317 -0.45731112
-1.0836984 -5.094027 -0.45775211
-1.1005844 -5.0904055 -0.45775211
-1.1176386 -5.0917873 -0.45819306
-1.1347126 -5.0931125 -0.45863408
-1.1518058 -5.0943804 -0.45907509
-1.1666909 -5.0858822 -0.45863408
-1.1815341 -5.0773406 -0.45819306
-1.1906148 -5.0445204 -0.45554712
-1.2006602 -5.0165362 -0.45334214
-1.2563475 -5.1773009 -0.46833596
-1.3059181 -5.3087459 -0.4806838
-1.3539169 -5.430264 -0.49214965
-1.4201255 -5.5470977 -0.5036155
-1.4350444 -5.5329666 -0.50273353
-1.4597166 -5.5522614 -0.50493848
-1.4809967 -5.5620866 -0.50626147
-1.4984624 -5.5574064 -0.50626147
-1.517226 -5.5574765 -0.50670248
-1.5360047 -5.5574832 -0.5071435
-1.5534564 -5.5526304 -0.5071435
-1.5722497 -5.5525141 -0.50758445
-1.5896857 -5.5475473 -0.50758445
-1.6094613 -5.5470285 -0.50802547
-1.6268799 -5.541945 -0.50802547
-1.6457003 -5.5415812 -0.50846642
-1.6645344 -5.5411539 -0.50890744
-1.6804864 -5.5311317 -0.50846642
-1.6978548 -5.525825 -0.50846642
-1.5046327 -4.6362882 -0.42820549
-1.5207428 -4.6362705 -0.42864645
-1.54627 -4.6645632 -0.43173343
-1.6099581 -4.8060827 -0.44540423
-1.7158704 -5.0173621 -0.466131
-1.7552809 -5.0775452 -0.47230491
-1.7942121 -5.1378341 -0.47847882
-1.812001 -5.1368694 -0.47891983
-1.8314732 -5.1405349 -0.47980183
-1.8492998 -5.1394415 -0.48024279
-1.8671377 -5.1382875 -0.4806838
-1.8849866 -5.1370726 -0.48112479
-1.9028463 -5.1357956 -0.4815658
-1.9224615 -5.1391215 -0.48244777
-1.9421164 -5.1423755 -0.48332977
-1.9600363 -5.140902 -0.48377076
-1.650238 -4.2087479 -0.3968949
-1.6487905 -4.1664944 -0.39336693
-1.6507885 -4.1335421 -0.39072096
-1.6514494 -4.0957112 -0.38763401
-1.6336464 -3.9792845 -0.37749112
-1.6308919 -3.9373214 -0.37396318
-1.6374922 -3.9183924 -0.37264019
-1.6478592 -3.9086392 -0.37219918
-1.6620797 -3.9080265 -0.37264019
-1.6763126 -3.9073627 -0.37308121
-1.6912397 -3.906353 -0.37352219
-1.705496 -3.9055848 -0.37396318
-1.7197648 -3.9047656 -0.37440416
-1.7340454 -3.9038954 -0.37484518
-1.7483374 -3.9029739 -0.37528619
-1.7626406 -3.9020007 -0.37572715
-1.776955 -3.9009764 -0.37616816
-1.7892015 -3.8953745 -0.37616816
-1.8035234 -3.894254 -0.37660915
-1.817856 -3.8930817 -0.37705016
-1.8300774 -3.8873515 -0.37705016
-1.8444163 -3.8860822 -0.37749112
-1.8594435 -3.8844368 -0.37793213
-1.8738022 -3.8830616 -0.37837312
-1.891027 -3.8857832 -0.37925509
-1.9054188 -3.8842947 -0.3796961
-1.9213492 -3.8875542 -0.3805781
-1.9357734 -3.8859565 -0.38101906
-1.9524415 -3.8887582 -0.38190109
-1.966897 -3.8870494 -0.38234207
-1.9813613 -3.8852878 -0.38278306
-1.9958341 -3.8834739 -0.38322404
-2.0109928 -3.8812561 -0.38366506
-2.0254812 -3.8793344 -0.38410607
-2.0399778 -3.8773599 -0.38454705
-2.0568142 -3.8797324 -0.38542902
-2.0713394 -3.8776448 -0.38587004
-2.0858717 -3.875504 -0.38631102
-2.1004107 -3.8733099 -0.38675201
-2.1173446 -3.8754337 -0.38763401
-2.1319108 -3.873126 -0.38807502
-2.1464834 -3.8707647 -0.38851598
-2.1641667 -3.8723211 -0.38939798
-2.1787648 -3.869843 -0.38983899
-2.1933684 -3.867311 -0.39027995
-2.2079778 -3.8647258 -0.39072096
-2.2225926 -3.862087 -0.39116195
-2.2372127 -3.8593946 -0.39160296
-2.2518375 -3.8566477 -0.39204392
-2.2689919 -3.8581409 -0.39292595
-2.2836399 -3.855279 -0.39336693
-2.2982919 -3.8523624 -0.39380792
-2.3161862 -3.8532574 -0.39468992
-2.3308594 -3.8502226 -0.3951309
-2.348129 -3.8513856 -0.39601287
-2.362823 -3.8482342 -0.39645389
-2.3801398 -3.8492646 -0.39733589
-2.397486 -3.8502235 -0.39821786
-2.4122155 -3.8468926 -0.39865887
-2.4296069 -3.8477178 -0.39954084
-2.4450264 -3.843842 -0.39998183
-2.4597766 -3.8403358 -0.40042284
-2.4772279 -3.8409603 -0.40130481
-2.4919951 -3.8373358 -0.40174583
-2.5094895 -3.8378253 -0.40262783
-2.5270116 -3.8382421 -0.4035098
-2.5418091 -3.8344357 -0.40395078
-2.5593724 -3.8347163 -0.40483275
-2.5741849 -3.830791 -0.40527377
-2.5917888 -3.8309355 -0.40615577
-2.6094186 -3.8310068 -0.40703773
-2.6270747 -3.8310053 -0.40791976
-2.6447563 -3.8309302 -0.4088017
-2.6624634 -3.8307824 -0.40968373
-2.6808636 -3.8300929 -0.4105657
-2.6957519 -3.8257232 -0.41100669
-2.7135208 -3.8253601 -0.41188872
-2.7313135 -3.8249226 -0.41277066
-2.7462234 -3.8203673 -0.41321167
-2.7640512 -3.8197906 -0.41409364
-2.7789702 -3.815114 -0.41453466
-2.7968323 -3.8143981 -0.41541666
-2.8117592 -3.8095996 -0.41585761
-2.8296542 -3.8087435 -0.41673964
-2.8445885 -3.8038237 -0.41718063
-2.8595195 -3.7988472 -0.41762158
-2.8744476 -3.7938149 -0.4180626
-2.8893723 -3.7887263 -0.41850361
-2.9079869 -3.787025 -0.41938561
-2.9229152 -3.7818108 -0.41982657
-2.9408982 -3.780472 -0.4207086
-2.9589009 -3.779057 -0.42159054
-2.9800074 -3.7814779 -0.42291355
-2.9980619 -3.7799017 -0.42379552
-3.0192442 -3.7821412 -0.42511851
-3.0373499 -3.7804029 -0.42600051
-3.055475 -3.7785871 -0.42688248
-3.0704741 -3.7728329 -0.42732349
-3.0892818 -3.770335 -0.42820549
-3.1074481 -3.7682965 -0.42908746
-3.1256332 -3.7661805 -0.42996946
-3.1406419 -3.7601655 -0.43041047
-3.1588492 -3.7579048 -0.43129244
-3.1770725 -3.7555678 -0.43217444
-3.1920841 -3.7493596 -0.4326154
-3.2070875 -3.7430956 -0.43305641
-3.2188315 -3.7330012 -0.43305641
-3.2305427 -3.7228711 -0.43305641
-3.2389469 -3.7089517 -0.4326154
-3.257158 -3.7062409 -0.43349743
-3.288583 -3.7183738 -0.43614337
-3.3201156 -3.7303469 -0.43878934
-3.3490856 -3.7378633 -0.44099432
-3.3741522 -3.7421196 -0.44275829
-3.3959327 -3.7425656 -0.44408128
-3.4143898 -3.7392347 -0.44496328
-3.4368825 -3.7388916 -0.44628626
-3.4553761 -3.7353876 -0.44716823
-3.4738808 -3.7318053 -0.44805023
-3.4923978 -3.7281423 -0.4489322
-3.5136912 -3.7286382 -0.45025522
-3.5356684 -3.7284234 -0.45157817
-3.5576799 -3.7281063 -0.45290115
-3.5797236 -3.7276888 -0.45422417
-3.6024504 -3.7265399 -0.45554712
-3.6245587 -3.7259133 -0.45687011
-3.6466978 -3.7251856 -0.45819306
-3.6653738 -3.7208066 -0.45907509
-3.6875637 -3.7198849 -0.46039805
-3.7097836 -3.7188601 -0.46172103
-3.7355633 -3.721247 -0.46348503
-3.7578535 -3.720005 -0.46480802
-3.776623 -3.7151659 -0.46568999
-3.79896 -3.7137284 -0.467013
-3.8184004 -3.7080493 -0.46789497
-3.8407826 -3.7064102 -0.46921793
-3.859597 -3.7012208 -0.47009996
-3.8820226 -3.6993845 -0.47142291
-3.9044738 -3.6974447 -0.4727459
-3.9305797 -3.6988127 -0.47450989
-3.9530931 -3.6966519 -0.47583288
-3.9792812 -3.6977754 -0.47759685
-4.0018549 -3.6953928 -0.47891983
-4.0244541 -3.692904 -0.48024279
-4.0470762 -3.6903107 -0.4815658
-4.0697227 -3.6876104 -0.48288879
-4.0893312 -3.680759 -0.48377076
-4.1120119 -3.6778545 -0.48509374
-4.1384363 -3.6781533 -0.48685774
-4.161171 -3.6750238 -0.4881807
-4.1876688 -3.6750743 -0.48994467
-4.2142091 -3.6749933 -0.49170867
-4.2370248 -3.6715212 -0.49303162
-4.2636356 -3.6711905 -0.49479559
-4.2865009 -3.6674922 -0.49611861
-4.3131804 -3.6669111 -0.4978826
-4.3398972 -3.6661994 -0.49964657
-4.3666525 -3.665355 -0.50141054
-4.394084 -3.6636131 -0.50317454
-4.4209137 -3.6624994 -0.50493848
-4.4439335 -3.6580892 -0.50626147
-4.4708247 -3.6567223 -0.50802547
-4.493886 -3.6520827 -0.50934845
-4.5208373 -3.6504619 -0.51111245
-4.547822 -3.6487088 -0.51287639
-4.574841 -3.646821 -0.51464039
-4.6018915 -3.6448004 -0.51640433
-4.6289759 -3.6426444 -0.51816833
-4.6560907 -3.6403553 -0.51993233
-4.6832376 -3.6379306 -0.52169627
-4.7110496 -3.6345494 -0.52346027
-4.7382555 -3.6318514 -0.52522421
-4.765492 -3.6290169 -0.52698821
-4.7927561 -3.6260483 -0.52875221
-4.8240309 -3.6259353 -0.53095716
-4.8553514 -3.6256628 -0.53316212
-4.8827171 -3.6222618 -0.53492612
-4.9141197 -3.6216776 -0.53713107
-4.9421787 -3.6171277 -0.53889501
-4.973659 -3.6162286 -0.54110003
-5.0051832 -3.6151659 -0.54330498
-5.032702 -3.6110387 -0.54506898
-5.0683565 -3.6125543 -0.54771495
-5.0918746 -3.6052485 -0.54903793
-5.1194711 -3.6006944 -0.55080187
-3.8855071 -2.7146022 -0.41629863
-5.1624527 -3.5826547 -0.55300689
-5.1900845 -3.5777264 -0.55477089
-3.8493009 -2.6179469 -0.4088017
-3.8579612 -2.6051676 -0.4088017
-3.8619902 -2.590261 -0.40836075
-3.8788495 -2.5829608 -0.40924272
-3.8910995 -2.5735092 -0.40968373
-3.9028804 -2.5646882 -0.41012472
-3.9150884 -2.5551367 -0.4105657
-3.9189177 -2.5401151 -0.41012472
-3.926878 -2.5277915 -0.41012472
-3.9306037 -2.5127592 -0.40968373
-3.9384782 -2.5003989 -0.40968373
-3.9425344 -2.484669 -0.40924272
-3.9545431 -2.4749126 -0.40968373
-3.9707587 -2.4677351 -0.4105657
-3.9827304 -2.4578636 -0.41100669
-4.1560493 -2.5468302 -0.42820549
-4.1640296 -2.5337615 -0.42820549
-4.1208148 -2.4897599 -0.42291355
-4.1841378 -2.5101104 -0.42864645
-4.1877246 -2.4944038 -0.42820549
-4.2041135 -2.4863064 -0.42908746
-6.1446009 -3.6078994 -0.62753493
-6.1472993 -3.5835621 -0.62665296
-6.150527 -3.5581689 -0.62577093
-6.1443996 -3.5289063 -0.62400693
-4.1824975 -2.3846874 -0.42291355
-4.2376471 -2.3985214 -0.42776448
-4.0710793 -2.2883215 -0.41012472
-4.2609177 -2.3774445 -0.42864645
-6.5625997 -3.471786 -0.65399456
-6.5999331 -3.4650419 -0.65664053
-6.6461215 -3.4627016 -0.66016847
-6.696785 -3.4623909 -0.66413742
-6.7342172 -3.454977 -0.66678339
-6.7805462 -3.4518795 -0.67031139
-6.8224754 -3.4462807 -0.67339832
-6.8688893 -3.4426823 -0.67692626
-6.9153471 -3.438828 -0.68045419
-6.9618487 -3.4347138 -0.68398219
-7.0083914 -3.4303429 -0.68751013
-7.0549765 -3.4257116 -0.69103813
-7.1060867 -3.4229844 -0.69500703
-7.1527567 -3.4178205 -0.69853497
-7.2039633 -3.4145322 -0.70250392
-7.2507138 -3.4088349 -0.70603192
-7.2974977 -3.402879 -0.70955986
-7.3533564 -3.4008441 -0.71396983
-7.4567742 -3.3903918 -0.72190768
-4.2437549 -1.9134547 -0.4088017
-4.2497454 -1.9001125 -0.4088017
-7.6022234 -3.37043 -0.73293251
-7.6492505 -3.3625636 -0.73646045
-7.7099991 -3.3604069 -0.74131143
-7.7616658 -3.3539479 -0.74528039
-7.8225231 -3.3511221 -0.75013137
-7.8834391 -3.3479445 -0.75498223
-7.9404039 -3.3411016 -0.7593922
-7.996829 -3.3353107 -0.76380217
-8.062501 -3.3330057 -0.76909411
-4.2799883 -1.7536061 -0.40615577
-4.2670178 -1.7326568 -0.4043918
-4.2585788 -1.7136645 -0.40306878
-4.2639413 -1.7002779 -0.40306878
-4.2692618 -1.6868733 -0.40306878
-4.2794704 -1.6745214 -0.4035098
-4.2893538 -1.6628697 -0.40395078
-4.2992063 -1.6511712 -0.4043918
-4.3136821 -1.6411992 -0.40527377
-4.3188167 -1.6276388 -0.40527377
-8.7519636 -3.2670033 -0.82377744
-8.8182421 -3.260216 -0.82906932
-4.329288 -1.5851512 -0.40483275
-4.3389287 -1.5732397 -0.40527377
-4.3438497 -1.5596014 -0.40527377
-4.3440347 -1.5442793 -0.40483275
-4.3441672 -1.5289706 -0.4043918
-4.3445101 -1.5129182 -0.40395078
-4.3492417 -1.4992627 -0.40395078
-4.3539305 -1.4855912 -0.40395078
-4.3585758 -1.4719062 -0.40395078
-4.3679023 -1.4597842 -0.4043918
-4.3724666 -1.4460554 -0.4043918
-4.3722548 -1.4307622 -0.40395078
-4.3767276 -1.4170198 -0.40395078
-4.3814025 -1.4024981 -0.40395078
-4.3810387 -1.3872236 -0.4035098
-4.3853755 -1.3734528 -0.4035098
-4.3896685 -1.3596696 -0.4035098
-4.3939185 -1.3458717 -0.4035098
-4.3981247 -1.3320618 -0.4035098
-4.402288 -1.3182374 -0.4035098
-4.4064074 -1.3044013 -0.4035098
-4.4104838 -1.2905512 -0.4035098
-4.419301 -1.2780732 -0.40395078
-4.4232945 -1.2641826 -0.40395078
-4.4272437 -1.2502807 -0.40395078
-4.426568 -1.2342547 -0.4035098
-4.4304237 -1.2203416 -0.4035098
-4.4342356 -1.2064176 -0.4035098
-4.438004 -1.1924804 -0.4035098
-4.4417281 -1.1785327 -0.4035098
-4.4454088 -1.1645722 -0.4035098
-4.4490457 -1.1506014 -0.4035098
-4.4526381 -1.1366192 -0.4035098
-4.4610167 -1.1238414 -0.40395078
-4.4693589 -1.1110233 -0.4043918
-4.4728274 -1.0969763 -0.4043918
-4.481092 -1.0840907 -0.40483275
-4.4844756 -1.070007 -0.40483275
-4.4878149 -1.0559139 -0.40483275
-4.486259 -1.0406839 -0.4043918
-4.5332026 -1.0365772 -0.40836075
-4.5315785 -1.021235 -0.40791976
-12.916989 -2.8683596 -1.1681939
-13.188429 -2.8393931 -1.1911256
-13.634164 -2.801172 -1.2290511
-13.760058 -2.782011 -1.239635
-4.5121622 -0.89670664 -0.40395078
-4.5198455 -0.88348174 -0.4043918
-4.5177073 -0.86833835 -0.40395078
-4.5204129 -0.85414064 -0.40395078
-4.5279708 -0.84084511 -0.4043918
-4.5305901 -0.82661533 -0.4043918
-4.5380669 -0.81325704 -0.40483275
-4.5405993 -0.79899567 -0.40483275
-4.543087 -0.78472763 -0.40483275
-4.5504408 -0.77128297 -0.40527377
-4.5529733 -0.75618869 -0.40527377
-4.5553265 -0.74188203 -0.40527377
-4.5527163 -0.7267828 -0.40483275
-4.5500565 -0.71170622 -0.4043918
-4.5473466 -0.69665468 -0.40395078
-4.5445876 -0.68162596 -0.4035098
-4.5417786 -0.66662264 -0.40306878
-4.5389209 -0.65164262 -0.40262783
-4.5409455 -0.63738054 -0.40262783
-4.5478597 -0.62378776 -0.40306878
-4.5497966 -0.60949773 -0.40306878
-4.5566278 -0.5958463 -0.4035098
-4.5585785 -0.58073252 -0.4035098
-4.5603805 -0.56640905 -0.4035098
-4.5621376 -0.55207878 -0.4035098
-4.5687957 -0.53832716 -0.40395078
-4.5754128 -0.52453786 -0.4043918
-4.5770378 -0.51016176 -0.4043918
-4.0874467 -0.40365884 -0.36029238
-4.1097398 -0.37980208 -0.36205634
-4.2101288 -0.37574443 -0.37087622
-4.1765532 -0.35952544 -0.36778927
-4.1329908 -0.34269914 -0.36382031
-4.1241174 -0.32892078 -0.36293831
-4.0953345 -0.31368122 -0.36029238
-4.0913329 -0.30044848 -0.35985136
-4.087338 -0.286531 -0.35941035
-4.0882182 -0.27368939 -0.35941035
-4.0890579 -0.26084396 -0.35941035
-4.0848856 -0.24769562 -0.35896936
-4.0856438 -0.23486081 -0.35896936
-4.0813885 -0.22175457 -0.35852841
-4.0820651 -0.20893088 -0.35852841
-4.0827012 -0.1961062 -0.35852841
-4.0783215 -0.18305627 -0.35808739
-4.0788765 -0.17024238 -0.35808739
-4.0794187 -0.15671523 -0.35808739
-4.074913 -0.14372358 -0.35764638
-4.0753446 -0.1309206 -0.35764638
-4.075736 -0.11811743 -0.35764638
-4.0711079 -0.10518336 -0.35720539
-4.0714183 -0.092393622 -0.35720539
-4.0716882 -0.079601884 -0.35720539
-4.0669389 -0.066728748 -0.35676441
-4.0671287 -0.053951208 -0.35676441
-4.0622973 -0.041123804 -0.35632342
-4.0624113 -0.027652342 -0.35632342
-4.0574975 -0.014872048 -0.35588241
-4.0575242 -0.0021244285 -0.35588241
-4.0575109 0.010622132 -0.35588241
-4.0574579 0.023369666 -0.35588241
-4.0523839 0.036071558 -0.35544139
-4.0522504 0.04880286 -0.35544139
-4.0470977 0.061456982 -0.35500044
-4.0468845 0.074171551 -0.35500044
-4.0466318 0.086884312 -0.35500044
-4.0463386 0.09959729 -0.35500044
-4.0460057 0.1123082 -0.35500044
-4.0456109 0.12572481 -0.35500044
-4.0451961 0.13843438 -0.35500044
-4.0397639 0.15095554 -0.35455942
-4.0392699 0.16364662 -0.35455942
-4.0387359 0.17633502 -0.35455942
-4.0381622 0.18902168 -0.35455942
-4.0325737 0.20145904 -0.35411844
-4.0319209 0.2141262 -0.35411844
-4.0312285 0.22679234 -0.35411844
-4.0304961 0.23945516 -0.35411844
-4.0297241 0.25211668 -0.35411844
-4.0289121 0.26477465 -0.35411844
-4.0280118 0.27813372 -0.35411844
-4.0221505 0.29042858 -0.35367742
-4.0212183 0.30306256 -0.35367742
-4.020246 0.31569463 -0.35367742
-4.0192347 0.3283225 -0.35367742
-4.0181832 0.34094822 -0.35367742
-4.0220537 0.3540062 -0.35411844
-4.0209217 0.36664063 -0.35411844
-4.0197501 0.37927037 -0.35411844
-4.018539 0.39189747 -0.35411844
-4.0172172 0.40522036 -0.35411844
-4.0109706 0.41732395 -0.35367742
-4.0096397 0.42992219 -0.35367742
-4.0082693 0.44251725 -0.35367742
-4.0118079 0.45566899 -0.35411844
-4.0103564 0.46827072 -0.35411844
-4.0088658 0.48086679 -0.35411844
-4.0073352 0.49345917 -0.35411844
-4.0057654 0.50604564 -0.35411844
-4.0041556 0.51862812 -0.35411844
-4.0074439 0.53185976 -0.35455942
-4.005753 0.54444742 -0.35455942
-4.0040231 0.55702865 -0.35455942
-4.0022535 0.56960541 -0.35455942
-4.0004444 0.58217555 -0.35455942
-3.9985955 0.59474099 -0.35455942
-3.9967072 0.60729945 -0.35455942
-3.9947796 0.61985302 -0.35455942
-3.9976215 0.63387591 -0.35500044
-3.9956102 0.64643216 -0.35500044
-3.9935598 0.65898103 -0.35500044
-3.9914699 0.67152447 -0.35500044
-3.9893405 0.68406022 -0.35500044
-3.9871716 0.69659024 -0.35500044
-3.9849637 0.70911235 -0.35500044
-3.9876165 0.72251642 -0.35544139
-2.2670119 0.4402521 -0.20109341
-2.2606535 0.44680113 -0.20065241
-2.2543557 0.45292029 -0.20021142
-2.2578015 0.46099636 -0.20065241
-2.2465887 0.4660641 -0.19977042
-2.2402401 0.47209239 -0.19932944
-2.2290053 0.47704366 -0.19844745
-2.2226288 0.482986 -0.19800644
-2.2162368 0.48889366 -0.19756545
-2.2098298 0.49476528 -0.19712445
-2.203408 0.50060213 -0.19668347
-2.1969709 0.50640285 -0.19624247
-2.1905196 0.51216877 -0.19580148
-2.1840537 0.5178985 -0.19536048
-2.1824157 0.52475762 -0.19536048
-2.1759179 0.53043145 -0.1949195
-2.1742406 0.537265 -0.1949195
-2.1725421 0.5440926 -0.1949195
-2.1708219 0.55091548 -0.1949195
-2.1689832 0.55811065 -0.1949195
-2.1672192 0.56492227 -0.1949195
-2.1654336 0.57172769 -0.1949195
-2.1636269 0.57852805 -0.1949195
-2.1617987 0.58532214 -0.1949195
-2.1599491 0.59211105 -0.1949195
-2.1580784 0.59889352 -0.1949195
-2.1609809 0.60701752 -0.19536048
-2.1590633 0.61380315 -0.19536048
-2.1571243 0.6205833 -0.19536048
-2.1551642 0.62735677 -0.19536048
-2.1531825 0.63412464 -0.19536048
-2.1510677 0.6412614 -0.19536048
-2.1538112 0.64945364 -0.19580148
-2.1517603 0.65621716 -0.19580148
-2.1544473 0.66444135 -0.19624247
-2.157104 0.6726895 -0.19668347
-2.15973 0.68096024 -0.19712445
-2.1623256 0.68925422 -0.19756545
-2.1648898 0.69757169 -0.19800644
-2.1626878 0.70436919 -0.19800644
-2.165195 0.71271753 -0.19844745
-2.1676712 0.72108799 -0.19888844
-2.1701159 0.72948158 -0.19932944
-2.1772456 0.73949885 -0.20021142
-2.1796222 0.74795204 -0.20065241
-2.1959517 0.76170462 -0.20241638
-2.2123497 0.77518719 -0.20418037
-2.2099032 0.782134 -0.20418037
-3.891844 1.4326916 -0.36382031
-3.9013293 1.4501163 -0.3651433
-3.910743 1.4676157 -0.36646625
-3.9107709 1.4816586 -0.36690727
-3.910749 1.495716 -0.36734828
-3.9060307 1.5079951 -0.36734828
-3.9059148 1.5220667 -0.36778927
-3.9057481 1.5361533 -0.36823022
-3.9055324 1.550253 -0.36867124
-3.9006426 1.5625155 -0.36867124
-3.9000568 1.5773094 -0.36911225
-3.899694 1.5914354 -0.36955324
-3.8992798 1.6055754 -0.36999422
-3.8988163 1.6197278 -0.37043521
-3.8983018 1.6338941 -0.37087622
-3.8977373 1.6480721 -0.37131724
-3.897121 1.6622635 -0.37175819
-3.896455 1.6764663 -0.37219918
-3.8957376 1.6906825 -0.37264019
-3.8949699 1.7049097 -0.37308121
-3.8941507 1.7191497 -0.37352219
-3.8887308 1.7313745 -0.37352219
-3.8878157 1.7456222 -0.37396318
-3.8868496 1.7598823 -0.37440416
-3.8858325 1.7741526 -0.37484518
-3.8847637 1.788435 -0.37528619
-3.8836434 1.8027267 -0.37572715
-3.8779607 1.8149192 -0.37572715
-3.8767443 1.829218 -0.37616816
-3.8754759 1.8435283 -0.37660915
-3.8738317 1.8585242 -0.37705016
-3.8724575 1.8728528 -0.37749112
-3.8665545 1.8850098 -0.37749112
-3.8650837 1.8993437 -0.37793213
-3.8635607 1.9136881 -0.37837312
-3.8619859 1.9280405 -0.37881413
-3.8603582 1.9424027 -0.37925509
-3.8586793 1.9567729 -0.3796961
-3.8569477 1.9711528 -0.38013712
-3.8551641 1.98554 -0.3805781
-3.8577485 2.0022297 -0.38146007
-3.8558526 2.0166481 -0.38190109
-3.8539045 2.0310731 -0.38234207
-3.8563018 2.0478427 -0.38322404
-3.8542409 2.0622969 -0.38366506
-3.8521268 2.0767591 -0.38410607
-3.8499603 2.0912275 -0.38454705
-3.8521092 2.1080947 -0.38542902
-3.8498294 2.1225903 -0.38587004
-3.8474958 2.1370933 -0.38631102
-3.8451092 2.1516016 -0.38675201
-3.8426692 2.166117 -0.38719299
-3.8397956 2.181308 -0.38763401
-3.8372471 2.1958337 -0.38807502
-3.8346441 2.2103653 -0.38851598
-3.8319886 2.2249017 -0.38895699
-3.8335783 2.2419586 -0.38983899
-3.8308074 2.2565181 -0.39027995
-3.8279834 2.2710826 -0.39072096
-3.825105 2.2856526 -0.39116195
-3.8221731 2.300226 -0.39160296
-3.8191864 2.3148041 -0.39204392
-3.8161471 2.3293855 -0.39248493
-3.817296 2.34658 -0.39336693
-3.8137274 2.3618479 -0.39380792
-3.8105149 2.3764527 -0.3942489
-3.8072479 2.3910613 -0.39468992
-3.8081365 2.4083343 -0.39557192
-3.8005514 2.4202864 -0.39557192
-3.8055069 2.440279 -0.3968949
-3.8020058 2.4549246 -0.39733589
-3.8026259 2.4722857 -0.39821786
-2.2520232 1.494542 -0.23593196
-2.2348936 1.4933081 -0.23460896
-2.2219265 1.4947615 -0.23372698
-2.2130957 1.4989419 -0.23328599
-2.2001462 1.500275 -0.23240401
-2.1913157 1.5043609 -0.23196301
-2.182482 1.5084058 -0.23152202
-2.1736438 1.5124104 -0.23108101
-2.1648028 1.516374 -0.23064004
-2.1559577 1.5202975 -0.23019902
-2.1509042 1.5274386 -0.23019902
-2.1420436 1.5312917 -0.22975804
-2.1369538 1.5383867 -0.22975804
-2.1280775 1.5421696 -0.22931704
-2.123492 1.5484774 -0.22931704
-2.1186171 1.5551406 -0.22931704
-2.1097152 1.5588294 -0.22887605
-2.1048079 1.5654494 -0.22887605
-2.0998793 1.5720544 -0.22887605
-2.0949304 1.5786433 -0.22887605
-2.0899608 1.5852166 -0.22887605
-2.0849702 1.5917748 -0.22887605
-2.0799594 1.5983169 -0.22887605
-2.0788672 1.6078906 -0.22931704
-2.0738058 1.6144134 -0.22931704
-2.072644 1.6239927 -0.22975804
-2.0675321 1.6304958 -0.22975804
-2.0663002 1.6400796 -0.23019902
-2.0611379 1.6465627 -0.23019902
-2.0598361 1.6561509 -0.23064004
-2.0543327 1.6629727 -0.23064004
-2.0529597 1.6725638 -0.23108101
-2.0515463 1.6821634 -0.23152202
-2.0500929 1.6917698 -0.23196301
-2.0524306 1.7045664 -0.23284499
-2.0508873 1.7141998 -0.23328599
-2.053416 1.726688 -0.23416798
-2.0555849 1.7395656 -0.23504998
-2.0614851 1.7557023 -0.23637295
-2.0635221 1.7686528 -0.23725495
-2.0689585 1.7852465 -0.23857792
-2.0783818 1.8048 -0.2403419
-2.0839527 1.8211523 -0.24166489
-3.4748018 3.0753257 -0.40747875
-3.4257402 3.070504 -0.40395078
-3.5270267 3.1813271 -0.41718063
-3.5207028 3.1957386 -0.41762158
-3.5768368 3.2672462 -0.42555952
-3.6252229 3.3323953 -0.4326154
-3.654953 3.3809712 -0.43746638
-3.6698322 3.4161909 -0.44055331
-3.6772554 3.4447286 -0.44275829
-1.9713984 1.8707873 -0.23725495
-1.9655117 1.876971 -0.23725495
-1.9560138 1.8796859 -0.23681395
-1.9572598 1.8927459 -0.23769593
-3.6538937 3.5557389 -0.44805023
-3.6533806 3.5776539 -0.44937319
-3.6563125 3.6030977 -0.45113719
-3.6520486 3.6215801 -0.45201918
-3.6582799 3.6506264 -0.45422417
-3.6573365 3.672688 -0.45554712
-3.6597929 3.6983206 -0.45731112
-3.658633 3.7204528 -0.45863408
-3.6608503 3.7461772 -0.46039805
-3.6594727 3.768378 -0.46172103
-3.6579914 3.7906084 -0.46304405
-3.6564069 3.8128653 -0.464367
-3.6547174 3.8351505 -0.46568999
-3.6488273 3.8544831 -0.46657199
-3.6469383 3.8768096 -0.46789497
-3.6449449 3.8991621 -0.46921793
-3.6428461 3.9215417 -0.47054094
-3.6406434 3.9439452 -0.47186393
-3.6383345 3.9663742 -0.47318688
-3.6366179 3.9881928 -0.47450989
-3.6341028 4.0106707 -0.47583288
-3.6314831 4.0331707 -0.47715583
-3.628758 4.0556941 -0.47847882
-3.6259263 4.0782409 -0.47980183
-3.6262872 4.1045418 -0.4815658
-3.6239512 4.1265106 -0.48288879
-3.624069 4.152885 -0.48465276
-3.6186059 4.1774335 -0.48597571
-3.6152122 4.2001052 -0.48729873
-3.6117103 4.2227974 -0.48862171
-3.6113281 4.2493029 -0.49038568
-3.6083465 4.2714128 -0.49170867
-3.6045153 4.2941723 -0.49303162
-3.6005778 4.3169494 -0.49435464
-3.5997097 4.3435793 -0.49611861
-3.5955446 4.3664002 -0.49744159
-3.5944242 4.3930936 -0.49920556
-3.593173 4.4198217 -0.50096953
-3.5917878 4.4465866 -0.50273353
-3.590271 4.4733849 -0.50449747
-3.5855157 4.4963236 -0.50582045
-3.5744648 4.5114698 -0.50626147
-3.578759 4.5461574 -0.50890744
-2.1836941 2.7919865 -0.31046
-2.1622019 2.7834797 -0.30869603
-2.1412752 2.774487 -0.30693206
-2.1264868 2.7732959 -0.30605006
-2.111728 2.7720389 -0.30516806
-2.1000028 2.7746882 -0.30472708
-2.0857732 2.7729464 -0.30384508
-2.0740705 2.7754953 -0.30340409
-2.0653403 2.7819977 -0.30340409
-2.0536344 2.7844641 -0.30296311
-2.0448763 2.7909021 -0.30296311
-2.0360987 2.7973125 -0.30296311
-2.0268111 2.804049 -0.30296311
-2.0150867 2.8063571 -0.30252209
-2.0062606 2.8126736 -0.30252209
-1.9974148 2.8189623 -0.30252209
-1.9885485 2.8252237 -0.30252209
-1.9825174 2.8355386 -0.30296311
-1.9731033 2.8420975 -0.30296311
-1.9669919 2.8523824 -0.30340409
-1.9608362 2.8626566 -0.30384508
-1.9546343 2.8729205 -0.30428606
-1.9516805 2.8869598 -0.30516806
-1.9453781 2.8972116 -0.30560905
-1.941793 2.9115961 -0.30649105
-1.9353873 2.9218342 -0.30693206
-1.93441 2.9403825 -0.30825502
-1.933336 2.9589534 -0.309578
-2.4960232 3.8999233 -0.40659678
-2.478416 3.8993385 -0.40571478
-2.4734445 3.9201722 -0.40703773
-2.4716949 3.9448051 -0.4088017
-2.4645517 3.9610088 -0.40968373
-2.4547141 3.9729686 -0.41012472
-2.4429142 3.9802349 -0.41012472
-2.4303985 3.9878895 -0.41012472
-2.4178576 3.9955056 -0.41012472
-2.4052939 4.0030813 -0.41012472
-2.3920059 4.0110359 -0.41012472
-2.3768561 4.0142446 -0.40968373
-2.3642325 4.0216923 -0.40968373
-2.3540976 4.033401 -0.41012472
-2.3414142 4.0407772 -0.41012472
-2.3287086 4.0481129 -0.41012472
-2.3184488 4.0597334 -0.4105657
-2.3056839 4.0669966 -0.4105657
-2.2953379 4.0785608 -0.41100669
-2.2800848 4.0814033 -0.4105657
-2.2568793 4.0715179 -0.4088017
-2.2272713 4.0480428 -0.40571478
-2.2002194 4.0287929 -0.40306878
-2.1756852 4.0137925 -0.40086386
-2.1559851 4.0074496 -0.39954084
-2.1386936 4.0054159 -0.39865887
-2.1244659 4.0073438 -0.39821786
-2.1095474 4.0095901 -0.39777687
-2.0969412 4.0161977 -0.39777687
-2.082022 4.0183439 -0.39733589
-2.0686851 4.0252261 -0.39733589
-2.0560296 4.0317049 -0.39733589
-2.0433531 4.0381446 -0.39733589
-2.0306573 4.0445437 -0.39733589
-2.0201609 4.0553613 -0.39777687
-2.009618 4.0661526 -0.39821786
-2.0012188 4.0813899 -0.39909989
-1.9905659 4.092135 -0.39954084
-1.9841934 4.1118259 -0.40086386
-1.9755673 4.1270232 -0.40174583
-1.9732733 4.155705 -0.40395078
-1.9750637 4.1934237 -0.40703773
-1.9766355 4.231195 -0.41012472
-1.9758965 4.2644978 -0.41277066
-1.9645685 4.2752099 -0.41321167
-1.9490629 4.2768283 -0.41277066
-1.9356178 4.2829299 -0.41277066
-1.9221525 4.28899 -0.41277066
-1.9086694 4.2950072 -0.41277066
-1.8951662 4.3009825 -0.41277066
-1.8836395 4.3114791 -0.41321167
-1.8700846 4.3173757 -0.41321167
-1.8584778 4.3278055 -0.41365269
-1.8448719 4.3336229 -0.41365269
-1.8331852 4.3439856 -0.41409364
-1.8195286 4.3497238 -0.41409364
-1.805855 4.3554182 -0.41409364
-1.7921627 4.3610702 -0.41409364
-1.7784537 4.3666787 -0.41409364
-1.7647259 4.3722444 -0.41409364
-1.7491325 4.3731427 -0.41365269
-1.7353847 4.3786163 -0.41365269
-1.7190353 4.3797107 -0.41321167
-1.705268 4.3850894 -0.41321167
-1.6914841 4.3904247 -0.41321167
-1.6776822 4.3957176 -0.41321167
-1.6646327 4.4006758 -0.41321167
-1.6507987 4.4058838 -0.41321167
-1.6369497 4.4110479 -0.41321167
-1.6230832 4.4161692 -0.41321167
-1.6084307 4.4215269 -0.41321167
-1.5954466 4.4315224 -0.41365269
-1.5807421 4.436789 -0.41365269
-1.5676762 4.4467034 -0.41409364
-1.5543863 4.4460912 -0.41365269
-1.542039 4.4556589 -0.41409364
-1.5296483 4.4651928 -0.41453466
-1.3759092 4.5201421 -0.41497564
-1.3617026 4.5244422 -0.41497564
-1.3474826 4.528698 -0.41497564
-2.6150916 8.8853226 -0.8167215
-2.5871658 8.8934937 -0.8167215
-1.3074912 4.5507698 -0.41585761
-1.294549 4.5596461 -0.41629863
-1.2842531 4.5780768 -0.41762158
-1.2725253 4.5916882 -0.41850361
-1.2580931 4.5956631 -0.41850361
-1.2436498 4.5995927 -0.41850361
-1.2291931 4.6034775 -0.41850361
-1.2159951 4.6121321 -0.4189446
-3.0181506 11.595158 -1.0575044
-2.976752 11.585285 -1.0557404
-2.7168739 10.721242 -0.97592038
-2.8909996 11.560782 -1.0517715
-2.8171265 11.57388 -1.0513304
-2.7804501 11.572501 -1.0504484
-2.7417789 11.571487 -1.0495665
-2.7031479 11.570343 -1.0486845
-2.6634333 11.564219 -1.0473615
-2.6237838 11.557957 -1.0460385
-2.5852814 11.556423 -1.0451565
-2.5457485 11.549896 -1.0438336
-2.5073388 11.548102 -1.0429516
-2.4679241 11.541311 -1.0416286
-2.4296033 11.53926 -1.0407466
-2.3913133 11.537083 -1.0398647
-2.3530672 11.534778 -1.0389826
-2.3148592 11.532347 -1.0381006
-2.2766895 11.529789 -1.0372186
-2.2404518 11.536886 -1.0372186
-1.723132 9.0244188 -0.81010652
-1.6931961 9.0300837 -0.81010652
-1.6648201 9.0353584 -0.81010652
-2.0835295 11.510584 -1.0323677
-2.0051684 11.489104 -1.0292808
-1.962339 11.456075 -1.0257528
-1.9246895 11.452359 -1.0248708
-1.8911268 11.473092 -1.0261937
-1.8542807 11.474061 -1.0257528
-1.8182263 11.479829 -1.0257528
-1.7813902 11.480562 -1.0253118
-1.7445675 11.481178 -1.0248708
-1.7070197 11.47675 -1.0239888
-1.6702402 11.477127 -1.0235478
-1.6327735 11.472456 -1.0226657
-1.5953528 11.467663 -1.0217838
-1.557972 11.462749 -1.0209018
-1.5206439 11.457711 -1.0200199
-1.483363 11.452554 -1.0191379
-1.4461296 11.447275 -1.0182559
-1.4089378 11.441875 -1.0173739
-1.3718003 11.436355 -1.0164919
-1.3347114 11.430714 -1.0156099
-1.2976716 11.424953 -1.014728
-1.260675 11.419073 -1.0138459
-1.2242652 11.418025 -1.013405
-1.1873591 11.411907 -1.0125229
-1.1510032 11.410625 -1.012082
-1.114177 11.404272 -1.0112
-1.0778767 11.402758 -1.010759
-1.041597 11.401128 -1.010318
-1.0049006 11.394421 -1.009436
-0.96867245 11.392559 -1.0089949
-0.93247205 11.390582 -1.008554
-0.89629358 11.38849 -1.008113
-0.85976243 11.381317 -1.007231
-0.82364464 11.378994 -1.00679
-0.78719991 11.371589 -1.005908
-0.75114435 11.369036 -1.0054671
-0.71511251 11.366368 -1.005026
-0.67910486 11.363587 -1.004585
-0.6431157 11.360692 -1.0041441
-0.60715759 11.357684 -1.0037031
-0.57122463 11.354561 -1.003262
-0.5353173 11.351324 -1.0028211
-0.49921089 11.342999 -1.0019391
-0.46357486 11.344511 -1.0019391
-0.42774653 11.340934 -1.0014981
-0.16720757 4.836576 -0.42511851
-0.15247959 4.8520122 -0.42644152
-0.13751803 4.8624239 -0.42732349
-0.12249257 4.8727903 -0.42820549
-0.24879268 11.311399 -0.99841112
-0.21306337 11.302165 -0.99752909
-0.17755704 11.302778 -0.99752909
-0.14204893 11.303281 -0.99752909
-0.10649249 11.298691 -0.99708813
-0.070991561 11.298969 -0.99708813
-0.035480313 11.294157 -0.99664718
-2.0737984e-15 11.289232 -0.99620616
0.035449021 11.284196 -0.99576521
0.070866399 11.279048 -0.99532419
0.10630473 11.278769 -0.99532419
0.14167342 11.2734 -0.99488318
0.17700942 11.26792 -0.99444216
0.21240626 11.267307 -0.99444216
0.24769749 11.261605 -0.99400115
0.28307414 11.260772 -0.99400115
0.31844801 11.259827 -0.99400115
0.35381871 11.258771 -0.99400115
0.38884777 11.247648 -0.99311918
0.42455533 11.256326 -0.99400115
0.091902725 2.0882006 -0.18168965
0.098228768 2.0829265 -0.18124868
0.10452147 2.0776334 -0.18080766
0.11078188 2.0723212 -0.18036667
0.11729144 2.0719631 -0.18036667
0.12350385 2.0666127 -0.17992568
0.12999542 2.0662146 -0.17992568
0.13615736 2.0608263 -0.17948468
0.1426307 2.0603883 -0.17948468
0.14910372 2.0599301 -0.17948468
0.15594934 2.0644178 -0.17992568
0.16282462 2.0688829 -0.18036667
0.16972949 2.0733252 -0.18080766
0.17624192 2.0727818 -0.18080766
0.1836288 2.0821402 -0.18168965
0.190622 2.086513 -0.18213066
0.19998799 2.1156545 -0.18477662
1.08851 11.141556 -0.98782724
0.49469528 4.9042277 -0.43305641
0.51009929 4.9026499 -0.43305641
1.1955924 11.15061 -0.98959118
1.2317088 11.1567 -0.99047321
1.2983209 11.11906 -0.98782724
1.3255334 11.050639 -0.98209429
1.3632855 11.071137 -0.9842993
1.4043065 11.116212 -0.98870927
1.4430838 11.12631 -0.9900322
1.4780295 11.121722 -0.9900322
1.5136323 11.12196 -0.99047321
1.548564 11.117149 -0.99047321
0.3243553 2.2260923 -0.19580148
0.32656178 2.1955624 -0.19315551
0.33271039 2.1896012 -0.19271451
0.33805996 2.1787021 -0.19183253
0.34568173 2.1825485 -0.19227353
0.35333097 2.1863685 -0.19271451
0.36100766 2.1901619 -0.19315551
0.36788735 2.1890171 -0.19315551
0.37476224 2.1878505 -0.19315551
0.38248971 2.1915686 -0.1935965
0.38937256 2.1903563 -0.1935965
0.39713985 2.1940229 -0.19403751
0.4049328 2.1976626 -0.1944785
0.41275257 2.2012749 -0.1949195
0.42153224 2.2097518 -0.19580148
0.42847317 2.2084167 -0.19580148
0.43637267 2.2119458 -0.19624247
0.98339784 4.8249383 -0.4326154
0.99855292 4.8218246 -0.4326154
1.0147209 4.8235378 -0.43305641
1.0309094 4.8251967 -0.43349743
1.0460626 4.8219347 -0.43349743
1.0622791 4.8234882 -0.43393841
1.0774267 4.820127 -0.43393841
1.0925635 4.8167186 -0.43393841
1.1088066 4.8181162 -0.4343794
1.1239396 4.8146086 -0.4343794
1.1390589 4.8110538 -0.4343794
1.1553297 4.812295 -0.43482038
1.1704416 4.8086414 -0.43482038
1.1867352 4.8097768 -0.4352614
1.2030499 4.8108559 -0.43570238
1.2181571 4.8070531 -0.43570238
1.2344908 4.8080263 -0.43614337
1.2495888 4.8041244 -0.43614337
1.2646772 4.8001742 -0.43614337
1.2797506 4.7961779 -0.43614337
1.2948112 4.7921338 -0.43614337
1.3111733 4.7928467 -0.43658435
1.326226 4.7887034 -0.43658435
1.3426074 4.789309 -0.43702537
1.3590057 4.7898593 -0.43746638
1.3754205 4.7903533 -0.43790734
1.3918545 4.7907906 -0.43834835
1.4068977 4.7863946 -0.43834835
1.4233466 4.7867255 -0.43878934
1.4383769 4.7822304 -0.43878934
1.4533955 4.7776875 -0.43878934
1.4683973 4.773098 -0.43878934
1.4833845 4.7684617 -0.43878934
1.4975274 4.764039 -0.43878934
1.512486 4.7593112 -0.43878934
1.5282604 4.7542691 -0.43878934
1.5431881 4.749445 -0.43878934
1.5581007 4.7445736 -0.43878934
1.5714291 4.7349281 -0.43834835
1.5862985 4.7299676 -0.43834835
1.6011497 4.7249608 -0.43834835
1.6143717 4.7151957 -0.43790734
1.6291763 4.7101007 -0.43790734
1.6439674 4.7049584 -0.43790734
1.6587397 4.6997709 -0.43790734
1.6768404 4.7039199 -0.43878934
1.6949835 4.7080007 -0.43967131
1.7114694 4.7073326 -0.44011232
1.7331148 4.7206345 -0.44187629
1.746205 4.7104969 -0.44143534
1.7592483 4.7003236 -0.44099432
1.7731878 4.6950827 -0.44099432
2.9128358 7.639966 -0.72058475
2.9421887 7.6447215 -0.72190768
3.8030219 9.7895641 -0.92652911
3.8373926 9.7868414 -0.92741102
3.8699512 9.7793694 -0.92785203
4.1758356 10.268414 -0.97812545
4.217526 10.278282 -0.98033035
1.9255034 4.6508741 -0.44231731
3.4066856 8.1559315 -0.77923697
3.4090817 8.0901127 -0.77394503
1.9653546 4.6233535 -0.44143534
1.9798689 4.6171565 -0.44143534
1.9963433 4.6154838 -0.44187629
3.9306917 9.0098505 -0.86699486
2.0253024 4.60285 -0.44187629
2.0377321 4.5919127 -0.44143534
2.0541816 4.5900345 -0.44187629
3.9974577 8.7838049 -0.85111904
2.4297094 5.294735 -0.51243538
2.4102895 5.1665258 -0.50141054
2.162437 4.5234828 -0.44055331
2.1723144 4.5076923 -0.43967131
2.1908171 4.5098057 -0.44055331
2.2093544 4.5118475 -0.44143534
2.227926 4.5138164 -0.44231731
2.2465343 4.5157127 -0.44319931
2.2674062 4.5219893 -0.44452226
2.2816007 4.5148439 -0.44452226
2.3025537 4.5209684 -0.44584525
2.3175333 4.513308 -0.44584525
3.8881814 7.5139017 -0.7457214
3.9163766 7.5104804 -0.74660343
3.9469011 7.5113664 -0.74792635
3.9761615 7.5128279 -0.74924934
4.0114608 7.5222731 -0.75145429
2.4037683 4.4736304 -0.44628626
2.4083257 4.4485378 -0.44452226
2.4222887 4.4409499 -0.44452226
2.4386289 4.4376822 -0.44496328
2.4525576 4.4299994 -0.44496328
2.4664621 4.4222732 -0.44496328
2.4803424 4.4145031 -0.44496328
2.4942005 4.4066877 -0.44496328
2.5080316 4.3988309 -0.44496328
2.5193574 4.386611 -0.44452226
2.5331254 4.378675 -0.44452226
2.544363 4.3663912 -0.44408128
2.5580673 4.3583765 -0.44408128
2.5717463 4.3503189 -0.44408128
2.5879481 4.346498 -0.44452226
2.6015921 4.3383451 -0.44452226
2.6152079 4.3301511 -0.44452226
2.6313863 4.3261695 -0.44496328
2.6449637 4.3178816 -0.44496328
2.6585174 4.3095498 -0.44496328
2.6720426 4.301177 -0.44496328
2.6855414 4.2927618 -0.44496328
2.6990137 4.2843041 -0.44496328
2.7124617 4.2758026 -0.44496328
2.7258804 4.2672601 -0.44496328
2.7392724 4.2586761 -0.44496328
2.7526374 4.2500496 -0.44496328
2.7686956 4.245553 -0.44540423
2.7820213 4.2368326 -0.44540423
2.7953174 4.2280722 -0.44540423
2.8050923 4.2156129 -0.44496328
2.8155494 4.202642 -0.44452226
2.8266847 4.1891537 -0.44408128
2.8426297 4.1843729 -0.44452226
2.8557606 4.1754222 -0.44452226
2.8949864 4.1483216 -0.44452226
2.910867 4.1432824 -0.44496328
2.9296203 4.1422501 -0.44584525
2.9541752 4.1492534 -0.44760922
2.9729984 4.1480489 -0.44849125
3.8340163 5.3140397 -0.57682055
3.8799586 5.3422675 -0.58123052
3.8996644 5.3340712 -0.58167148
3.9134498 5.3177824 -0.58123052
3.932173 5.3101516 -0.58167148
3.9518147 5.301764 -0.58211249
3.9684505 5.2893233 -0.58211249
3.9880488 5.2808051 -0.58255351
3.9985902 5.2603202 -0.58167148
3.0950651 4.0452476 -0.44760922
3.1047189 4.0315585 -0.44716823
3.1143174 4.0178494 -0.44672725
3.1330509 4.0158992 -0.44760922
3.1518054 4.0138702 -0.44849125
3.1674871 4.0078564 -0.4489322
3.1831627 4.0017838 -0.44937319
3.1957183 3.9917643 -0.44937319
3.2082427 3.9817054 -0.44937319
3.2207372 3.9716055 -0.44937319
3.2331979 3.961468 -0.44937319
3.2424655 3.9474428 -0.4489322
3.2548501 3.9372373 -0.4489322
3.2672048 3.9269912 -0.4489322
3.2795253 3.916708 -0.4489322
3.2918131 3.9063861 -0.4489322
3.3072901 3.8998244 -0.44937319
3.3195271 3.8894136 -0.44937319
3.3349743 3.8827446 -0.4498142
3.3471553 3.8722486 -0.4498142
3.3625722 3.8654723 -0.45025522
3.374701 3.8548882 -0.45025522
3.3900864 3.8480046 -0.45069617
3.402158 3.8373356 -0.45069617
3.414196 3.8266289 -0.45069617
3.4262025 3.8158827 -0.45069617
3.4415121 3.8087962 -0.45113719
3.4534602 3.797966 -0.45113719
3.4687366 3.7907727 -0.45157817
3.4833429 3.7841277 -0.45201918
3.4985981 3.7768202 -0.4524602
3.5111034 3.7651975 -0.4524602
3.5263221 3.7577806 -0.45290115
3.5415294 3.7503054 -0.45334214
3.5532954 3.7391593 -0.45334214
3.5678146 3.7322013 -0.45378315
3.5795233 3.720973 -0.45378315
3.5911951 3.7097096 -0.45378315
3.6063066 3.7019773 -0.45422417
3.6179185 3.69063 -0.45422417
3.6294947 3.6792462 -0.45422417
3.6445453 3.6713586 -0.45466512
3.6560609 3.6598914 -0.45466512
3.6710713 3.6519005 -0.45510614
3.6825254 3.6403499 -0.45510614
3.6974983 3.632252 -0.45554712
3.7088907 3.6206183 -0.45554712
3.7202463 3.6089492 -0.45554712
3.7351511 3.6007011 -0.45598814
3.7464461 3.5889475 -0.45598814
3.7613091 3.5805943 -0.45642909
3.7761571 3.5721834 -0.45687011
3.7946181 3.5671258 -0.45775211
3.8094466 3.5585852 -0.45819306
3.8242574 3.549989 -0.45863408
3.8353906 3.5379577 -0.45863408
3.8501575 3.5292571 -0.45907509
3.8612275 3.5171423 -0.45907509
3.8722572 3.5049951 -0.45907509
3.883249 3.4928133 -0.45907509
3.8979158 3.483916 -0.45951608
3.908843 3.4716518 -0.45951608
3.9234638 3.4626505 -0.45995706
3.9343224 3.4503081 -0.45995706
3.9451418 3.4379315 -0.45995706
3.9559226 3.4255209 -0.45995706
3.966666 3.4130747 -0.45995706
3.9767742 3.4012914 -0.45995706
3.9874415 3.3887796 -0.45995706
3.9986556 3.3755403 -0.45995706
4.0130577 3.3661606 -0.46039805
4.0236125 3.3535371 -0.46039805
4.0341277 3.3408806 -0.46039805
4.048449 3.3313558 -0.46083906
4.0588961 3.318619 -0.46083906
4.0687237 3.3065627 -0.46083906
4.0790911 3.2937646 -0.46083906
4.0894198 3.2809319 -0.46083906
4.0997066 3.268069 -0.46083906
4.1060486 3.2520814 -0.46039805
4.1162443 3.2391665 -0.46039805
4.1230392 3.2224314 -0.45995706
4.1292105 3.2064066 -0.45951608
4.1353192 3.1903765 -0.45907509
4.1650858 3.1925194 -0.46128008
4.1750946 3.1794193 -0.46128008
4.2009511 3.1783054 -0.46304405
4.2162962 3.149605 -0.46260303
4.2181721 3.1304057 -0.46172103
4.2279854 3.1171389 -0.46172103
4.2457933 3.1097274 -0.46260303
