# .PCD v0.7 - Point Cloud Data file format
VERSION 0.7
FIELDS x y z
SIZE 4 4 4
TYPE F F F
COUNT 1 1 1
WIDTH 1524
HEIGHT 1
VIEWPOINT 0 0 0 1 0 0 0
POINTS 1524
DATA ascii
30.837513 -3.6989875 7.1559024
30.820906 -3.7952526 7.154779
30.803995 -3.8914495 7.1536546
30.786091 -3.9929514 7.1525311
30.773396 -4.0896492 7.1525311
30.756296 -4.1802807 7.1514068
30.743011 -4.2768841 7.1514068
30.729424 -4.373445 7.1514068
30.710712 -4.4692607 7.1502829
30.69652 -4.5657191 7.1502829
30.682026 -4.6621327 7.1502829
30.666397 -4.7638521 7.1502829
30.646467 -4.8594065 7.149159
30.631048 -4.9556608 7.149159
30.61533 -5.0518665 7.149159
30.605011 -5.1434894 7.1502829
30.598305 -5.2412577 7.1525311
30.586487 -5.3381963 7.1536546
31.016394 -5.6198592 7.2626734
30.993795 -5.7163887 7.2615499
30.970896 -5.8128314 7.2604256
30.938124 -5.9073596 7.2570543
17.83255 -3.5212376 4.184298
16.364487 -3.2848005 3.8415072
16.081984 -3.2806864 3.7774446
15.948136 -3.3027003 3.7482228
12.242196 -2.7386985 2.8850639
12.195523 -2.7685165 2.8760726
12.182017 -2.8057227 2.8749487
12.197361 -2.8473928 2.8805683
12.188355 -2.8856978 2.8805683
12.183968 -2.9251118 2.8816922
12.174718 -2.9633744 2.8816922
12.164824 -3.0037308 2.8816922
12.155327 -3.0419328 2.8816922
12.140988 -3.0789073 2.8805683
12.131255 -3.117034 2.8805683
12.116688 -3.1539028 2.8794444
12.10672 -3.1919529 2.8794444
12.091926 -3.2287145 2.8783205
12.081722 -3.2666864 2.8783205
12.066701 -3.3033397 2.8771966
12.056264 -3.3412318 2.8771966
12.041018 -3.3777754 2.8760726
12.02566 -3.4142561 2.8749487
12.014874 -3.452019 2.8749487
11.999291 -3.4883873 2.8738248
11.988273 -3.526067 2.8738248
11.977137 -3.5637119 2.8738248
11.961216 -3.5999174 2.8727009
11.949847 -3.6374769 2.8727009
11.933704 -3.6735671 2.871577
11.922105 -3.7110398 2.871577
11.910388 -3.7484756 2.871577
11.898553 -3.7858746 2.871577
11.885933 -3.8253109 2.871577
11.873857 -3.8626328 2.871577
11.866292 -3.9014382 2.8727009
11.853976 -3.9386978 2.8727009
11.846163 -3.9774694 2.8738248
11.833609 -4.0146656 2.8738248
11.825547 -4.0534019 2.8749487
11.817358 -4.0921273 2.8760726
11.804444 -4.1292324 2.8760726
11.796007 -4.1679192 2.8771966
11.782855 -4.204957 2.8771966
11.769587 -4.2419534 2.8771966
11.76078 -4.2805738 2.8783205
11.747274 -4.3175001 2.8783205
11.73822 -4.3560791 2.8794444
11.724477 -4.3929343 2.8794444
11.710619 -4.4297462 2.8794444
11.696645 -4.4665141 2.8794444
11.682554 -4.5032382 2.8794444
11.668349 -4.5399179 2.8794444
11.65403 -4.5765524 2.8794444
11.635065 -4.6113472 2.8783205
11.620521 -4.6478763 2.8783205
11.605862 -4.6843605 2.8783205
11.591088 -4.7207985 2.8783205
11.580707 -4.7590413 2.8794444
11.565699 -4.7953997 2.8794444
11.550576 -4.8317108 2.8794444
11.539829 -4.8698683 2.8805683
11.524472 -4.9060974 2.8805683
11.509003 -4.9422784 2.8805683
11.49342 -4.9784107 2.8805683
11.482187 -5.0164442 2.8816922
11.466371 -5.0524921 2.8816922
11.454894 -5.0904679 2.8828161
11.438846 -5.1264296 2.8828161
11.422684 -5.1623402 2.8828161
11.406409 -5.1982002 2.8828161
11.390022 -5.2340088 2.8828161
11.373523 -5.2697659 2.8828161
11.361326 -5.3075328 2.88394
11.344596 -5.3431993 2.88394
11.326815 -5.3807898 2.88394
11.309855 -5.4163475 2.88394
11.292783 -5.4518518 2.88394
11.275599 -5.4873023 2.88394
11.262679 -5.5248437 2.8850639
11.245267 -5.5601993 2.8850639
11.227743 -5.5955 2.8850639
11.21011 -5.6307454 2.8850639
11.192365 -5.665935 2.8850639
11.170169 -5.6988549 2.88394
11.152211 -5.7339182 2.88394
11.129816 -5.7666845 2.8828161
11.111645 -5.8016214 2.8828161
11.089052 -5.8342323 2.8816922
11.040537 -5.8530669 2.8738248
10.961931 -5.8555851 2.8580904
10.849098 -5.8391953 2.8333642
10.736478 -5.822155 2.8086383
10.624072 -5.8044648 2.7839124
10.516152 -5.7884765 2.7603104
10.40844 -5.7718673 2.7367086
10.300935 -5.7546391 2.7131064
10.197888 -5.739182 2.6906283
10.095042 -5.723135 2.6681502
9.9923973 -5.7064991 2.6456721
9.8899584 -5.6892753 2.6231942
9.7919416 -5.6739068 2.6018398
9.6941195 -5.6579795 2.5804856
9.5964956 -5.6414938 2.5591314
9.499073 -5.6244512 2.5377774
9.4060354 -5.6093478 2.5175471
9.3131886 -5.5937157 2.4973166
9.2580509 -5.6002512 2.4872015
9.2071257 -5.6090307 2.4782102
10.502472 -6.5805278 2.8502228
10.461145 -6.600491 2.8446033
10.44447 -6.6359363 2.8457272
10.467546 -6.6994243 2.8580904
8.1530914 -5.2543087 2.2287035
8.6079168 -5.662951 2.3680677
8.5738363 -5.6792035 2.3635719
7.9069939 -5.3092742 2.1882429
7.857985 -5.3122592 2.1792517
8.6497459 -5.9670596 2.4152718
8.6520119 -6.0492067 2.4265108
8.6528854 -6.0903788 2.4321301
8.6456356 -6.1259832 2.4355021
8.6422129 -6.1644306 2.4399974
8.6386347 -6.2029171 2.4444933
8.6348982 -6.2414417 2.4489887
8.6310062 -6.2800045 2.4534845
8.6230259 -6.3157248 2.456856
8.6188278 -6.3543487 2.4613519
8.6094446 -6.3916073 2.4647236
8.6049337 -6.4302883 2.469219
8.6013927 -6.4675035 2.4737148
8.5926867 -6.5033135 2.4770863
8.5877161 -6.5420861 2.4815822
8.5825863 -6.5808911 2.4860775
8.5722857 -6.618248 2.4894495
8.5668392 -6.6571035 2.4939449
8.5573959 -6.6929889 2.4973166
8.5516405 -6.7318945 2.5018125
8.5457239 -6.7708292 2.5063078
8.5396481 -6.8097935 2.5108037
8.5372095 -6.8518353 2.516423
8.5270119 -6.8878064 2.5197949
8.5166721 -6.9237804 2.5231664
8.5024204 -6.9566727 2.5254142
8.5212917 -7.1097569 2.551264
8.5026445 -7.1396255 2.552388
8.4913368 -7.1757364 2.5557599
8.4835968 -7.2150025 2.5602553
8.4719934 -7.251123 2.563627
8.4676285 -7.293601 2.5692465
8.4630814 -7.3361225 2.5748663
8.4620199 -7.3818903 2.5816095
5.4042206 -4.8676901 1.6689987
5.3780723 -4.8748279 1.6656271
5.3375344 -4.8687162 1.6577598
5.3329802 -4.8953443 1.6611315
5.3139958 -4.9087682 1.6600075
5.3021164 -4.9287553 1.6611315
5.27949 -4.9387317 1.6588836
5.2391162 -4.9319167 1.6510164
5.2129855 -4.9383001 1.6476446
5.1657076 -4.9243975 1.6375295
5.1256008 -4.9169922 1.6296622
5.0855913 -4.9093838 1.6217947
5.0491757 -4.9049673 1.6150514
5.0128379 -4.9003711 1.608308
4.980052 -4.8990116 1.6026883
4.9438624 -4.8940673 1.595945
4.906899 -4.889801 1.5892016
4.870872 -4.8844934 1.5824581
4.8314972 -4.8755465 1.5745907
4.7956452 -4.8698726 1.5678474
4.7598772 -4.8640213 1.5611039
4.7241931 -4.8579946 1.5543605
4.6885943 -4.8517909 1.5476171
4.6530814 -4.8454123 1.5408736
4.6210179 -4.8423829 1.5352541
4.5856676 -4.8356647 1.5285107
4.5537467 -4.8323183 1.522891
4.5185618 -4.8252635 1.5161477
4.4867854 -4.8216019 1.5105282
4.4517694 -4.8142114 1.5037848
4.4201407 -4.8102355 1.4981652
4.3852959 -4.8025112 1.4914218
4.353817 -4.798224 1.4858023
4.3224087 -4.7937865 1.4801828
4.2910714 -4.7891994 1.4745632
4.2598057 -4.7844625 1.4689437
4.2253838 -4.7759275 1.4622003
4.1942749 -4.7708831 1.4565808
4.1632395 -4.7656908 1.4509612
4.1354718 -4.7640295 1.4464656
4.1037431 -4.7592678 1.4408461
4.0729213 -4.7536378 1.4352266
4.0453343 -4.7515712 1.4307309
4.0146532 -4.7456584 1.4251114
3.9871848 -4.7433295 1.4206158
3.9566476 -4.7371359 1.4149964
3.9293003 -4.7345462 1.4105008
3.8989086 -4.7280731 1.4048811
3.8685966 -4.7214551 1.3992616
3.8414407 -4.7184725 1.394766
3.8112779 -4.7115779 1.3891464
3.7842484 -4.7083383 1.3846508
3.7542367 -4.7011681 1.3790313
3.7273362 -4.6976728 1.3745357
3.7004945 -4.6940551 1.3700401
3.6707082 -4.6864791 1.3644205
3.6439986 -4.6826081 1.3599249
3.6173494 -4.6786156 1.3554293
3.5907617 -4.6745019 1.3509337
3.5642354 -4.6702676 1.3464381
3.5377712 -4.6659126 1.3419424
3.5113702 -4.661438 1.3374468
3.4842188 -4.6574516 1.3329512
3.4579451 -4.6527333 1.3284556
3.4317355 -4.6478958 1.3239599
3.4084721 -4.6468687 1.3205884
3.3823802 -4.6418033 1.3160927
3.3563535 -4.63662 1.3115971
3.3332372 -4.6352749 1.3082253
3.3073306 -4.6298661 1.3037297
3.2843106 -4.6283135 1.3003579
3.2585261 -4.6226802 1.2958623
3.2320037 -4.6174946 1.2913667
3.2063565 -4.6116247 1.2868711
3.183547 -4.6096482 1.2834995
3.1580255 -4.6035566 1.2790039
3.1353168 -4.6013761 1.275632
3.1126537 -4.5990992 1.2722603
3.0873175 -4.5926814 1.2677647
3.0647581 -4.5902023 1.2643931
3.039552 -4.5835662 1.2598975
3.0170975 -4.5808859 1.2565256
2.9946902 -4.5781102 1.2531539
2.9723303 -4.5752392 1.2497823
2.9492202 -4.5727878 1.2464106
2.9243286 -4.5656199 1.241915
2.9021261 -4.5624514 1.2385432
2.8799727 -4.5591893 1.2351716
2.8552792 -4.5517054 1.2306759
2.8332376 -4.5482473 1.2273042
2.8112459 -4.5446949 1.2239324
2.7893047 -4.5410504 1.2205607
2.7699511 -4.541472 1.218313
2.7480981 -4.5376492 1.2149411
2.7262969 -4.5337343 1.2115695
2.7045476 -4.5297279 1.2081978
2.6828501 -4.5256286 1.204826
2.6612053 -4.5214386 1.2014543
2.6396136 -4.5171576 1.1980827
2.6180749 -4.512785 1.194711
2.595803 -4.5087752 1.1913391
2.5743728 -4.5042181 1.1879675
2.5529969 -4.4995713 1.1845958
2.5340664 -4.4990792 1.1823479
2.5127869 -4.4942608 1.1789763
2.4939268 -4.4936128 1.1767284
2.4727447 -4.4886231 1.1733567
2.4516189 -4.4835453 1.1699851
2.4305496 -4.4783792 1.1666133
2.4118474 -4.4774141 1.1643655
2.3900974 -4.4724965 1.1609938
2.3714693 -4.471375 1.1587459
2.3506026 -4.4658689 1.1553743
2.3320501 -4.4645948 1.1531265
2.3135283 -4.4632483 1.1508787
2.2928097 -4.4574971 1.147507
2.2743647 -4.4559989 1.1452591
2.2515497 -4.4457364 1.1407635
2.2310092 -4.4397278 1.1373918
2.2083547 -4.4292746 1.1328962
2.1857882 -4.4187226 1.1284006
2.1718955 -4.4255676 1.1284006
2.1409199 -4.397325 1.1194093
2.1461651 -4.4435139 1.1295245
2.1524615 -4.4945474 1.1407635
2.1592371 -4.5452948 1.1520026
2.1574073 -4.5784988 1.1587459
2.1492016 -4.5984955 1.1621177
2.1306462 -4.596384 1.1598699
2.1039853 -4.5764956 1.1531265
2.0794916 -4.5609174 1.147507
2.0591309 -4.5541096 1.1441351
2.0420251 -4.5564675 1.1430113
2.0257218 -4.5584078 1.1418874
2.0094266 -4.5602908 1.1407635
1.9814365 -4.5353293 1.1328962
1.9555596 -4.5147076 1.1261526
1.9279096 -4.4894919 1.1182854
1.9042541 -4.4731126 1.1126659
1.8864036 -4.4700956 1.1104181
1.8667104 -4.4625158 1.1070462
1.8489499 -4.4593573 1.1047986
1.8275238 -4.4471183 1.1003029
1.8080313 -4.439301 1.0969312
1.7831347 -4.4178519 1.0901878
1.765628 -4.4143844 1.0879399
1.7535462 -4.424439 1.0890639
1.7396379 -4.4299259 1.0890639
1.7274789 -4.4399099 1.0901878
1.7100172 -4.4362226 1.0879399
1.6935594 -4.4373178 1.0868161
1.6761649 -4.4335017 1.0845683
1.6588112 -4.4296203 1.0823205
1.6431926 -4.4302421 1.0811965
1.6259066 -4.4262357 1.0789486
1.6103277 -4.4267435 1.0778248
1.5931104 -4.4226131 1.075577
1.5726615 -4.4092402 1.0710814
1.5393339 -4.3590312 1.0575945
1.5079455 -4.3132558 1.0452316
1.4832336 -4.2857428 1.0373642
1.4697628 -4.2903814 1.0373642
1.453148 -4.2857494 1.0351164
1.4412268 -4.2949128 1.0362403
1.4277269 -4.2994194 1.0362403
1.4126918 -4.2992549 1.0351164
1.398427 -4.303916 1.0351164
1.3819169 -4.2990112 1.0328686
1.366928 -4.2986884 1.0317447
1.350493 -4.2936664 1.0294969
1.3355501 -4.2932358 1.028373
1.3191909 -4.2880969 1.0261252
1.3042948 -4.287559 1.0250013
1.288012 -4.2823043 1.0227535
1.2724169 -4.2818818 1.0216296
1.2575856 -4.2811832 1.0205057
1.2427711 -4.2804341 1.0193818
1.2279739 -4.279634 1.0182579
1.213194 -4.2787838 1.017134
1.1971172 -4.273191 1.0148861
1.1823871 -4.2722354 1.0137622
1.1663902 -4.2665296 1.0115144
1.1517107 -4.2654691 1.0103905
1.1357943 -4.2596517 1.0081427
1.1211661 -4.2584872 1.0070188
1.1065564 -4.2572727 1.0058949
1.0907547 -4.2512894 1.0036471
1.0761976 -4.2499728 1.0025232
1.0604783 -4.2438788 1.0002754
1.0459743 -4.2424593 0.99915141
1.0314897 -4.2409906 0.99802762
1.0170246 -4.2394724 0.99690366
1.0018399 -4.23808 0.99577975
0.98741472 -4.2364616 0.99465579
0.97300971 -4.2347946 0.993532
0.95862478 -4.233079 0.99240804
0.9431991 -4.2265592 0.99016017
0.9288702 -4.2247434 0.98903638
0.91456193 -4.2228789 0.98791242
0.90027457 -4.2209663 0.98678851
0.88527167 -4.2191601 0.98566455
0.87102699 -4.2171497 0.98454076
0.85680366 -4.2150908 0.9834168
0.84260178 -4.2129841 0.98229289
0.82842165 -4.2108297 0.98116899
0.81426346 -4.2086287 0.98004514
0.80012721 -4.2063794 0.97892118
0.78601313 -4.2040834 0.97779727
0.77118844 -4.2018747 0.97667336
0.7571196 -4.199482 0.9755494
0.74307346 -4.1970425 0.97442561
0.72821575 -4.1897559 0.97217774
0.71423042 -4.1872201 0.97105378
0.70026833 -4.1846385 0.96992999
0.68632936 -4.1820097 0.96880603
0.67241389 -4.1793351 0.96768212
0.65852201 -4.1766143 0.96655816
0.64465392 -4.1738477 0.96543437
0.63080966 -4.1710353 0.96431041
0.61698943 -4.1681767 0.9631865
0.6031934 -4.1652727 0.96206254
0.59010482 -4.1671472 0.96206254
0.57634252 -4.1641545 0.96093875
0.56260478 -4.1611166 0.95981479
0.54889184 -4.1580329 0.95869088
0.53582627 -4.1597371 0.95869088
0.5214231 -4.1566567 0.95756698
0.50777084 -4.1534386 0.95644313
0.49414387 -4.1501751 0.95531923
0.48110327 -4.1517072 0.95531923
0.46751231 -4.1483564 0.95419526
0.45394713 -4.1449618 0.95307136
0.44092312 -4.1463675 0.95307136
0.42739481 -4.1428862 0.95194751
0.41365397 -4.1442804 0.95194751
0.40016362 -4.1407104 0.95082361
0.3866998 -4.1370959 0.94969964
0.37326318 -4.1334376 0.94857574
0.36027575 -4.1345901 0.94857574
0.3468771 -4.1308465 0.94745177
0.33350554 -4.1270599 0.94632798
0.32053834 -4.1280875 0.94632798
0.30720609 -4.1242151 0.94520402
0.29390132 -4.1203003 0.94408011
0.28095555 -4.1212034 0.94408011
0.26769093 -4.1172037 0.94295615
0.25445423 -4.113162 0.94183236
0.24153109 -4.1139412 0.94183236
0.22833529 -4.1098146 0.9407084
0.21516781 -4.1056466 0.93958449
0.20202878 -4.1014357 0.93846053
0.18914273 -4.1020503 0.93846053
0.17533039 -4.0977879 0.93733674
0.16226296 -4.0934501 0.93621278
0.14922452 -4.0890708 0.93508887
0.13637814 -4.089519 0.93508887
0.12338277 -4.0850577 0.93396497
0.11054857 -4.0854249 0.93396497
0.097596809 -4.0808821 0.93284112
0.084775858 -4.0811682 0.93284112
0.071868189 -4.0765433 0.93171722
0.059060995 -4.0767488 0.93171722
0.046197947 -4.0720425 0.93059325
0.033365052 -4.0672956 0.92946935
0.020587102 -4.06738 0.92946935
0.0077995947 -4.0625529 0.9283455
-0.0056725326 -4.0625567 0.9283455
-0.018435404 -4.0625186 0.9283455
-0.031160677 -4.0575686 0.9272216
-0.04390775 -4.0574508 0.9272216
-0.056586366 -4.0524211 0.92609763
-0.069317147 -4.0522232 0.92609763
-0.082654573 -4.0471001 0.92497373
-0.095368505 -4.0468206 0.92497373
-0.1080815 -4.0465012 0.92497373
-0.12064804 -4.0412717 0.92384988
-0.13334347 -4.0408731 0.92384988
-0.14603759 -4.0404339 0.92384988
-0.158539 -4.0350871 0.92272598
-0.17121482 -4.0345688 0.92272598
-0.18388894 -4.0340114 0.92272598
-0.19656126 -4.0334134 0.92272598
-0.20923163 -4.0327764 0.92272598
-0.22163221 -4.0272341 0.92160201
-0.23428304 -4.0265179 0.92160201
-0.24752815 -4.0354881 0.92384988
-0.40695801 -5.2648673 1.2093217
-0.42349607 -5.2635627 1.2093217
-0.44094858 -5.2621293 1.2093217
-0.45789993 -5.2655716 1.2104455
-0.54399508 -5.6392865 1.2981102
-0.56170875 -5.6375494 1.2981102
-0.57891858 -5.6309104 1.2969863
-0.59660578 -5.6290641 1.2969863
-0.61428702 -5.627162 1.2969863
-0.63196224 -5.6252041 1.2969863
-0.64963049 -5.6231914 1.2969863
-0.66671872 -5.6162844 1.2958623
-0.68435949 -5.614162 1.2958623
-0.70199353 -5.6119843 1.2958623
-0.71962065 -5.6097512 1.2958623
-0.73724067 -5.6074629 1.2958623
-0.75485337 -5.6051192 1.2958623
-0.77179325 -5.5978937 1.2947384
-0.79035252 -5.5953035 1.2947384
-0.80792677 -5.5927925 1.2947384
-0.82549304 -5.5902271 1.2947384
-0.8430512 -5.587606 1.2947384
-0.86157525 -5.5847797 1.2947384
-0.87911606 -5.5820456 1.2947384
-0.895675 -5.5794125 1.2947384
-0.91319883 -5.576571 1.2947384
-0.9299112 -5.5688691 1.2936145
-0.9474017 -5.5659199 1.2936145
-0.96488214 -5.5629163 1.2936145
-0.98235381 -5.5598578 1.2936145
-1.0016494 -5.5613647 1.2947384
-1.019116 -5.5581903 1.2947384
-1.0365726 -5.5549612 1.2947384
-1.0540189 -5.5516772 1.2947384
-1.0714548 -5.5483384 1.2947384
-1.0888801 -5.5449452 1.2947384
-1.1062946 -5.5414968 1.2947384
-1.1236984 -5.5379939 1.2947384
-1.1420748 -5.5392084 1.2958623
-1.159471 -5.535593 1.2958623
-1.1778209 -5.5317178 1.2958623
-1.1951935 -5.5279903 1.2958623
-1.2125543 -5.5242081 1.2958623
-1.2299031 -5.5203714 1.2958623
-1.2483143 -5.5212326 1.2969863
-1.2656536 -5.5172839 1.2969863
-1.2829803 -5.5132804 1.2969863
-1.3002945 -5.5092225 1.2969863
-1.3187299 -5.5098486 1.2981102
-1.3360331 -5.5056787 1.2981102
-1.3542835 -5.5012178 1.2981102
-1.3715594 -5.4969358 1.2981102
-1.3888217 -5.4926 1.2981102
-1.4072795 -5.492929 1.299234
-1.4245291 -5.488481 1.299234
-1.4417646 -5.4839783 1.299234
-1.4602395 -5.4841299 1.3003579
-1.4774605 -5.4795156 1.3003579
-1.4959508 -5.4795475 1.301482
-1.513158 -5.4748206 1.301482
-1.5316628 -5.4747319 1.3026059
-1.5488546 -5.469893 1.3026059
-1.568328 -5.4694095 1.3037297
-1.5855029 -5.4644556 1.3037297
-1.6040345 -5.4641223 1.3048536
-1.6211927 -5.4590564 1.3048536
-1.6383348 -5.4539361 1.3048536
-1.656877 -5.453424 1.3059776
-1.6740013 -5.4481921 1.3059776
-1.6911091 -5.4429059 1.3059776
-1.7096603 -5.4422145 1.3071015
-1.7267492 -5.4368167 1.3071015
-1.7453102 -5.4360037 1.3082253
-1.7638832 -5.4351277 1.3093492
-1.7809495 -5.4295597 1.3093492
-1.7995305 -5.4285626 1.3104731
-1.8181235 -5.4275026 1.3115971
-1.8367274 -5.4263783 1.3127209
-1.8537658 -5.4205813 1.3127209
-1.872377 -5.4193358 1.3138448
-1.8919444 -5.417697 1.3149687
-1.9089552 -5.4117265 1.3149687
-1.9275825 -5.4102921 1.3160927
-1.9445698 -5.4042096 1.3160927
-1.9641451 -5.4023099 1.3172165
-1.9827864 -5.4006863 1.3183404
-1.9988016 -5.3947797 1.3183404
-2.017447 -5.3930368 1.3194643
-2.0361011 -5.3912301 1.3205884
-2.0547638 -5.389359 1.3217121
-2.0716848 -5.3828773 1.3217121
-2.0903497 -5.3808837 1.322836
-2.1081812 -5.3739223 1.322836
-2.126847 -5.3718028 1.3239599
-2.1437125 -5.3650947 1.3239599
-2.162379 -5.3628521 1.325084
-2.1810524 -5.3605456 1.3262079
-2.1997323 -5.3581738 1.3273317
-2.2165549 -5.3512363 1.3273317
-2.2352338 -5.348742 1.3284556
-2.2520263 -5.3416934 1.3284556
-2.2573559 -5.3076916 1.3217121
-2.2499633 -5.2419753 1.3071015
-2.218513 -5.0803933 1.2700126
-2.2050061 -5.0065169 1.2531539
-2.2049017 -4.9639444 1.2441627
-2.2184937 -4.9525466 1.2430388
-2.2360473 -4.9499927 1.2441627
-2.2536068 -4.9473777 1.2452867
-2.271172 -4.9447007 1.2464106
-2.2887423 -4.9419618 1.2475344
-2.3071802 -4.9387589 1.2486583
-2.3247604 -4.935894 1.2497823
-2.3402555 -4.9285665 1.2497823
-2.3578312 -4.9255843 1.2509062
-2.375411 -4.9225402 1.25203
-2.3929951 -4.919435 1.2531539
-2.4127281 -4.9206419 1.2554018
-2.4346509 -4.9261408 1.2587736
-1.991872 -3.7572329 0.97217774
-1.9944836 -3.7337673 0.96768212
-1.9992768 -3.7146127 0.96431041
-2.0132592 -3.7125964 0.96543437
-2.0272486 -3.7105284 0.96655816
-2.041245 -3.7084095 0.96768212
-2.0558944 -3.7058809 0.96880603
-2.0699036 -3.7036569 0.96992999
-2.086309 -3.7056265 0.97217774
-2.1003439 -3.7032917 0.97330165
-2.1143847 -3.7009056 0.97442561
-2.1284311 -3.698467 0.9755494
-2.1449263 -3.7001925 0.97779727
-2.1589971 -3.6976433 0.97892118
-2.1730728 -3.6950419 0.98004514
-2.1871531 -3.6923883 0.98116899
-2.2012386 -3.6896832 0.98229289
-2.2153285 -3.6869259 0.9834168
-2.2275429 -3.6795592 0.9834168
-2.2416277 -3.676703 0.98454076
-2.2557163 -3.673794 0.98566455
-2.2698092 -3.6708333 0.98678851
-2.2839057 -3.6678202 0.98791242
-2.2980051 -3.6647551 0.98903638
-2.3121078 -3.6616368 0.99016017
-2.3262141 -3.6584666 0.99128413
-2.3409612 -3.654835 0.99240804
-2.3577127 -3.6556511 0.99465579
-2.3718393 -3.6523123 0.99577975
-2.385968 -3.6489208 0.99690366
-2.400099 -3.6454763 0.99802762
-2.4142313 -3.6419787 0.99915141
-2.4310706 -3.6424811 1.0013993
-2.445219 -3.6388698 1.0025232
-2.4620988 -3.6392403 1.004771
-2.4762626 -3.6355143 1.0058949
-2.4931824 -3.6357532 1.0081427
-2.50736 -3.6319118 1.0092666
-2.5243187 -3.6320183 1.0115144
-2.5385098 -3.628062 1.0126383
-2.556139 -3.6275895 1.0148861
-2.5703418 -3.6235149 1.01601
-2.5845439 -3.6193871 1.017134
-2.5987453 -3.6152055 1.0182579
-2.6129463 -3.6109705 1.0193818
-2.6300149 -3.6106203 1.0216296
-2.6442256 -3.6062686 1.0227535
-2.6584353 -3.6018639 1.0238774
-2.6726434 -3.5974054 1.0250013
-2.6868496 -3.5928931 1.0261252
-2.7039838 -3.5922191 1.028373
-2.7181978 -3.58759 1.0294969
-2.7359896 -3.5863035 1.0317447
-2.75021 -3.5815549 1.0328686
-2.7667825 -3.5810897 1.0351164
-2.7840009 -3.5800717 1.0373642
-2.8018644 -3.5784926 1.0396121
-2.8191242 -3.5773253 1.0418599
-2.8333759 -3.5722687 1.0429838
-2.8506644 -3.5709648 1.0452316
-2.8685939 -3.5690875 1.0474794
-2.885921 -3.5676334 1.0497272
-2.9001901 -3.5623279 1.0508511
-2.9175436 -3.5607359 1.0530989
-2.9318147 -3.5553119 1.0542228
-2.949193 -3.5535815 1.0564706
-2.963465 -3.5480385 1.0575945
-2.9808671 -3.5461695 1.0598422
-2.9951394 -3.5405073 1.0609663
-3.0125647 -3.5384996 1.0632141
-3.0268354 -3.5327177 1.0643378
-3.0442827 -3.5305705 1.0665858
-3.0617452 -3.5283494 1.0688336
-3.0792243 -3.526052 1.0710814
-3.0967188 -3.5236807 1.0733292
-3.1174569 -3.5248828 1.0767009
-3.1356072 -3.5218036 1.0789486
-3.1531587 -3.5191925 1.0811965
-3.1674612 -3.512888 1.0823205
-3.1850297 -3.5101352 1.0845683
-3.2026117 -3.507308 1.0868161
-3.2202077 -3.5044038 1.0890639
-3.2351196 -3.4972823 1.0901878
-3.2527294 -3.4942341 1.0924355
-3.269743 -3.4916804 1.0946834
-3.2873797 -3.4884822 1.0969312
-3.305027 -3.485208 1.099179
-3.326051 -3.4853814 1.1025506
-3.3443413 -3.4813595 1.1047986
-3.3620336 -3.4778419 1.1070462
-3.3797381 -3.4742467 1.1092942
-3.3974519 -3.4705751 1.1115419
-3.4185963 -3.4702969 1.1149137
-3.436341 -3.4664602 1.1171615
-3.4540956 -3.4625468 1.1194093
-3.4718602 -3.4585545 1.1216571
-3.4896328 -3.4544861 1.1239049
-3.5074151 -3.4503388 1.1261526
-3.5252049 -3.446115 1.1284006
-3.5464978 -3.4452071 1.1317723
-3.5649149 -3.4401939 1.1340201
-3.5827374 -3.4357221 1.1362679
-3.6040947 -3.4345322 1.1396395
-3.6219418 -3.4298933 1.1418874
-3.6433437 -3.4285138 1.1452591
-3.6612136 -3.423707 1.147507
-3.6826587 -3.422137 1.1508787
-3.7005501 -3.4171619 1.1531265
-3.7226324 -3.4147515 1.1564982
-3.7405424 -3.4096041 1.1587459
-3.7584581 -3.4043772 1.1609938
-3.7799978 -3.4023316 1.1643655
-3.7979314 -3.3969352 1.1666133
-3.8195088 -3.3946972 1.1699851
-3.8411102 -3.3923557 1.1733567
-3.8590722 -3.3866997 1.1756046
-3.8807089 -3.3841653 1.1789763
-3.9023669 -3.3815291 1.1823479
-3.9203558 -3.3756104 1.1845958
-3.9420464 -3.3727801 1.1879675
-3.9637589 -3.3698456 1.1913391
-3.9854913 -3.3668094 1.194711
-4.0078306 -3.3629694 1.1980827
-4.0296016 -3.3597221 1.2014543
-4.0513926 -3.35637 1.204826
-4.0732012 -3.3529155 1.2081978
-4.0950289 -3.3493557 1.2115695
-4.1168733 -3.3456929 1.2149411
-4.1387362 -3.3419247 1.218313
-4.1568141 -3.3350041 1.2205607
-4.1787004 -3.3310387 1.2239324
-4.2006021 -3.3269701 1.2273042
-4.2230997 -3.3220587 1.2306759
-4.2450318 -3.317775 1.2340475
-4.2669778 -3.3133876 1.2374194
-4.2927966 -3.3118696 1.241915
-4.3147798 -3.3072591 1.2452867
-4.3367772 -3.3025422 1.2486583
-4.3587866 -3.2977204 1.25203
-4.3847036 -3.2957194 1.2565256
-4.4067473 -3.2906742 1.2598975
-4.4288015 -3.2855225 1.2632691
-4.4514399 -3.2794871 1.2666408
-4.477447 -3.2769957 1.2711364
-4.4995418 -3.2715092 1.2745082
-4.5255957 -3.2687676 1.2790039
-4.5477176 -3.2630551 1.2823756
-4.5738163 -3.2600627 1.2868711
-4.595964 -3.2541242 1.2902428
-4.6221051 -3.2508802 1.2947384
-4.6442766 -3.244715 1.2981102
-4.6704583 -3.241219 1.3026059
-4.6966624 -3.2375915 1.3071015
-4.7228909 -3.2338302 1.3115971
-4.7497044 -3.2291086 1.3160927
-4.7719388 -3.2223499 1.3194643
-4.798223 -3.2181985 1.3239599
-4.8245292 -3.2139122 1.3284556
-4.8508544 -3.2094936 1.3329512
-4.8772001 -3.2049401 1.3374468
-4.9035645 -3.200254 1.3419424
-4.9299479 -3.1954322 1.3464381
-4.9604454 -3.1931145 1.3520576
-4.9868722 -3.1880114 1.3565532
-5.0138712 -3.1818988 1.3610488
-5.0403295 -3.1765227 1.3655444
-5.0709343 -3.1735952 1.371164
-5.0974307 -3.1679361 1.3756596
-5.1239429 -3.1621404 1.3801552
-5.1504679 -3.1562107 1.3846508
-5.1811681 -3.152678 1.3902704
-5.2077274 -3.1464627 1.394766
-5.2384758 -3.1426191 1.4003855
-5.2650661 -3.1361187 1.4048811
-5.2964072 -3.1310384 1.4105008
-5.3230243 -3.1242492 1.4149964
-5.3496513 -3.117322 1.419492
-5.3720694 -3.10782 1.4228636
-5.3944812 -3.0982063 1.4262353
-5.4168844 -3.0884838 1.429607
-5.4392815 -3.07865 1.4329787
-5.4659162 -3.0710936 1.4374744
-5.4883022 -3.0610254 1.4408461
-9.3107538 -5.078496 2.4377496
-9.3061199 -5.0359988 2.4321301
-9.3004341 -4.995213 2.4265108
-9.2945843 -4.9545097 2.420891
-9.2842636 -4.9116168 2.4141479
-9.2780809 -4.8711004 2.4085283
-9.2674122 -4.8284225 2.4017847
-9.2608967 -4.7880955 2.3961654
-9.2542191 -4.7478595 2.3905458
-6.4264855 -3.1705859 1.6442729
-6.423286 -3.1439557 1.6409011
-6.4243665 -3.119504 1.6386534
-6.4165773 -3.0908494 1.6341578
-6.4130678 -3.0643733 1.6307859
-6.4094553 -3.0379515 1.6274143
-6.4018569 -3.0083916 1.6229187
-6.3980284 -2.982091 1.619547
-6.3940988 -2.9558423 1.6161753
-6.394495 -2.93168 1.6139275
-6.4081092 -2.9135923 1.6150514
-6.4394379 -2.90346 1.6206709
-6.4796619 -2.8971353 1.6285383
-6.5288167 -2.8945372 1.6386534
-6.5735593 -2.8896961 1.6476446
-6.6183348 -2.8846045 1.6566359
-6.6636457 -2.8780954 1.6656271
-6.7040057 -2.8705699 1.6734943
-6.7443843 -2.8628211 1.6813618
-6.7847791 -2.8548467 1.6892291
-6.825191 -2.8466449 1.6970963
-6.8656173 -2.8382189 1.7049638
-6.9105668 -2.8314123 1.713955
-6.951026 -2.8225198 1.7218224
-6.9960179 -2.815218 1.7308135
-7.0365057 -2.8058584 1.7386808
-7.0815358 -2.7980607 1.7476721
-7.126585 -2.7900095 1.7566634
-7.1721392 -2.7804499 1.7656547
-7.2172241 -2.7718773 1.7746459
-7.2668791 -2.7647834 1.7847611
-7.3120017 -2.7556846 1.7937523
-7.3617015 -2.748035 1.8038673
-7.4114265 -2.7400985 1.8139825
-7.4611731 -2.7318783 1.8240976
-7.5109415 -2.7233706 1.8342128
-7.5612025 -2.7132602 1.8443279
-7.6110072 -2.7041717 1.8544432
-7.6608286 -2.6947989 1.8645583
-7.7152681 -2.6867402 1.8757974
-7.7651238 -2.6767795 1.8859123
-7.8196058 -2.6681037 1.8971515
-7.8694925 -2.6575549 1.9072666
-7.9240112 -2.6482611 1.9185057
-7.978548 -2.638653 1.9297448
-8.033103 -2.628726 1.9409839
-8.08813 -2.6170712 1.9522227
-8.1473532 -2.6079881 1.9645858
-8.2019529 -2.5970881 1.9758248
-8.2612152 -2.5873246 1.9881879
-8.3158407 -2.5757744 1.9994267
-8.3751354 -2.5653315 2.0117898
-8.4344444 -2.5545435 2.0241528
-8.4937687 -2.5434055 2.0365157
-8.5531044 -2.5319223 2.0488787
-8.6124535 -2.5200889 2.0612416
-8.6764898 -2.5092633 2.0747285
-8.7358599 -2.4967189 2.0870914
-8.8003588 -2.4836152 2.1005783
-8.8644333 -2.4716594 2.1140652
-8.9285212 -2.4593234 2.127552
-8.9973173 -2.44789 2.1421628
-9.0614262 -2.434782 2.1556497
-9.1302481 -2.4225471 2.1702604
-9.1990824 -2.4099011 2.184871
-9.2679272 -2.3968489 2.199482
-9.3415003 -2.3845928 2.2152166
-9.4103642 -2.3707054 2.2298274
-9.4839592 -2.3575861 2.2455621
-9.5575638 -2.3440254 2.2612965
-9.6315842 -2.3283455 2.2770314
-9.709939 -2.3150253 2.29389
-9.7831602 -2.3018274 2.3096247
-9.8615341 -2.2875941 2.326483
-9.9399147 -2.2728939 2.3433418
-10.018299 -2.2577205 2.3602004
-10.10144 -2.2431359 2.3781829
-10.18459 -2.2280483 2.3961654
-10.268129 -2.2106693 2.4141479
-10.351281 -2.1945686 2.4321301
-10.434433 -2.1779647 2.4501126
-10.522353 -2.1618431 2.469219
-10.615051 -2.146153 2.4894495
-10.702974 -2.1289539 2.5085559
-10.796043 -2.1102729 2.5287862
-10.893524 -2.0938196 2.5501401
-10.98622 -2.0758672 2.5703704
-11.0837 -2.0582454 2.5917246
-11.185971 -2.0409029 2.614203
-11.283444 -2.0220814 2.6355569
-11.385708 -2.003509 2.658035
-11.487966 -1.9843168 2.6805134
-11.590213 -1.9644985 2.7029912
-11.697255 -1.9448595 2.7265935
-11.799813 -1.9217217 2.7490714
-11.916448 -1.9023083 2.7749212
-12.023122 -1.8827693 2.7985232
-13.426048 -1.5843245 3.1098449
-13.46 -1.5454737 3.1165884
-13.465051 -1.5008297 3.1165884
-13.474544 -1.4590433 3.1177123
-13.47906 -1.4167063 3.1177123
-13.483444 -1.3743554 3.1177123
-13.492544 -1.3324662 3.1188362
-13.496664 -1.2900734 3.1188362
-13.50065 -1.2476641 3.1188362
-13.504503 -1.2052462 3.1188362
-13.513077 -1.1632307 3.1199601
-13.516665 -1.1207741 3.1199601
-13.524975 -1.0786903 3.1210837
-13.528297 -1.0361968 3.1210837
-13.536518 -0.99168503 3.1222079
-13.539567 -0.94915211 3.1222079
-13.547343 -0.90693885 3.1233318
-13.550125 -0.86437237 3.1233318
-13.552774 -0.82180095 3.1233318
-13.555289 -0.77921778 3.1233318
-13.55767 -0.7366305 3.1233318
-13.559917 -0.69403243 3.1233318
-13.562031 -0.65143102 3.1233318
-13.564011 -0.60882324 3.1233318
-13.570724 -0.56640905 3.1244557
-13.572436 -0.52377433 3.1244557
-13.578884 -0.48130348 3.1255796
-13.580329 -0.43864357 3.1255796
-13.58164 -0.39597574 3.1255796
-13.582817 -0.35330763 3.1255796
-13.583914 -0.30826285 3.1255796
-13.584815 -0.26558441 3.1255796
-13.585583 -0.22290693 3.1255796
-4.0524597 -0.053756624 0.92609763
-4.0233774 -0.04072981 0.91935414
-4.0673332 -0.02839537 0.92946935
-4.0576587 -0.015580453 0.9272216
-4.0625596 -0.0028357261 0.9283455
-4.0625486 0.0099266553 0.9283455
-4.0576253 0.022662807 0.9272216
-4.0575337 0.035409562 0.9272216
-4.0525308 0.048098143 0.92609763
-4.0474882 0.060756721 0.92497373
-4.0472775 0.073471442 0.92497373
-4.042141 0.086787887 0.92384988
-4.0418482 0.099486761 0.92384988
-4.0366454 0.11204839 0.92272598
-4.0362735 0.12472986 0.92272598
-4.035862 0.13740905 0.92272598
-4.0354099 0.15008794 0.92272598
-4.0349188 0.16276427 0.92272598
-4.02952 0.1752284 0.92160201
-4.0289497 0.18788612 0.92160201
-4.0234733 0.2003008 0.92047811
-4.0179586 0.21268184 0.91935414
-4.0172706 0.22530413 0.91935414
-4.0116386 0.23833482 0.91823035
-4.01087 0.2509371 0.91823035
-4.0100617 0.26353586 0.91823035
-4.0092139 0.27613306 0.91823035
-4.0083771 0.28802729 0.91823035
-4.002594 0.30025357 0.91710639
-4.0015764 0.31352517 0.91710639
-4.0005717 0.32609546 0.91710639
-3.9995275 0.33866149 0.91710639
-3.9935901 0.3507989 0.91598248
-3.9924684 0.36334288 0.91598248
-3.9913073 0.37588432 0.91598248
-3.9901068 0.388421 0.91598248
-3.984019 0.40046763 0.91485858
-3.9826691 0.41367602 0.91485858
-3.9765058 0.42566788 0.91373473
-3.9751489 0.43815783 0.91373473
-3.9737527 0.45064449 0.91373473
-3.9723175 0.46312565 0.91373473
-3.9708428 0.47560331 0.91373473
-3.9693291 0.4880752 0.91373473
-3.9677763 0.50054336 0.91373473
-3.9661841 0.5130055 0.91373473
-3.9645529 0.52546358 0.91373473
-3.9628825 0.53791547 0.91373473
-3.9611731 0.55036312 0.91373473
-3.954601 0.56211865 0.91261077
-3.9528153 0.57454014 0.91261077
-3.9509909 0.58695489 0.91261077
-3.9491274 0.59936494 0.91261077
-3.9472251 0.61176801 0.91261077
-3.9452837 0.62416607 0.91261077
-3.9431922 0.63724482 0.91261077
-3.9411707 0.64963007 0.91261077
-3.9392259 0.66132075 0.91261077
-3.9371288 0.67369348 0.91261077
-3.934993 0.68605846 0.91261077
-3.9328182 0.69841778 0.91261077
-3.9304807 0.71145475 0.91261077
-3.928226 0.72379971 0.91261077
-3.9259329 0.7361365 0.91261077
-3.9236007 0.74846709 0.91261077
-3.926013 0.7617172 0.91373473
-3.9236007 0.77404791 0.91373473
-3.9211495 0.78636992 0.91373473
-3.9186597 0.79868519 0.91373473
-3.9161313 0.81099159 0.91373473
-3.913564 0.823291 0.91373473
-3.9109585 0.83558124 0.91373473
-3.908314 0.84786427 0.91373473
-3.9056311 0.86013788 0.91373473
-3.9029095 0.8724041 0.91373473
-3.9001496 0.8846606 0.91373473
-3.897351 0.89690948 0.91373473
-3.8945143 0.9091484 0.91373473
-3.8963792 0.9225018 0.91485858
-3.8934622 0.93473756 0.91485858
-3.8905065 0.94696409 0.91485858
-3.8875122 0.95918232 0.91485858
-3.8892064 0.97257203 0.91598248
-3.8859599 0.98546392 0.91598248
-3.8828444 0.99766767 0.91598248
-3.8796914 1.0098605 0.91598248
-3.8764994 1.0220445 0.91598248
-3.8732696 1.0342174 0.91598248
-3.8747044 1.0476526 0.91710639
-3.8713942 1.0598197 0.91710639
-3.8680453 1.0719774 0.91710639
-3.8646588 1.0841234 0.91710639
-3.8612337 1.0962597 0.91710639
-3.8577707 1.1083843 0.91710639
-3.8542695 1.1204988 0.91710639
-3.8552067 1.1346486 0.91823035
-3.8516231 1.146755 0.91823035
-3.8480015 1.1588491 0.91823035
-3.8490021 1.1723522 0.91935414
-3.8453002 1.1844379 0.91935414
-3.8415599 1.1965129 0.91935414
-3.8377821 1.2085751 0.91935414
-3.8386087 1.2221044 0.92047811
-3.8347507 1.2341573 0.92047811
-3.8308544 1.2461989 0.92047811
-3.8315489 1.2597489 0.92160201
-3.8275723 1.2717805 0.92160201
-3.8235581 1.2837983 0.92160201
-3.8241198 1.2973698 0.92272598
-3.8200254 1.3093768 0.92272598
-3.8158927 1.3213718 0.92272598
-3.8163218 1.3349614 0.92384988
-3.812109 1.3469447 0.92384988
-3.8078587 1.3589137 0.92384988
-3.8081536 1.372522 0.92497373
-3.8035817 1.385142 0.92497373
-3.8037839 1.3987664 0.92609763
-3.799371 1.410709 0.92609763
-3.7994823 1.4243488 0.9272216
-3.7949891 1.4362777 0.9272216
-3.7950091 1.4499323 0.9283455
-3.7904356 1.4618471 0.9283455
-3.790364 1.4755156 0.92946935
-3.7857099 1.4874157 0.92946935
-3.7855473 1.5010979 0.93059325
-3.780813 1.5129826 0.93059325
-3.7805586 1.5266777 0.93171722
-3.775744 1.5385467 0.93171722
-3.7753978 1.5522542 0.93284112
-3.7750027 1.5659734 0.93396497
-3.7700644 1.5778258 0.93396497
-3.7695775 1.5915565 0.93508887
-3.7690411 1.6053009 0.93621278
-3.7639797 1.6171333 0.93621278
-3.7633512 1.6308869 0.93733674
-3.758209 1.6427023 0.93733674
-3.7574875 1.6564656 0.93846053
-3.756717 1.6702418 0.93958449
-3.7514513 1.6820352 0.93958449
-3.7505877 1.6958202 0.9407084
-3.7452419 1.7075942 0.9407084
-3.7442853 1.7213874 0.94183236
-3.7432792 1.7351903 0.94295615
-3.7375045 1.747594 0.94295615
-3.7364025 1.7614051 0.94408011
-3.7352512 1.7752256 0.94520402
-3.7296555 1.786952 0.94520402
-3.7284107 1.8007787 0.94632798
-3.7271149 1.814616 0.94745177
-3.721396 1.8263156 0.94745177
-3.7200067 1.8401585 0.94857574
-3.7185678 1.8540096 0.94969964
-3.7170787 1.8678699 0.95082361
-3.7111921 1.8795387 0.95082361
-3.7096088 1.8934028 0.95194751
-3.7079742 1.9072764 0.95307136
-3.7019641 1.9189155 0.95307136
-3.7002358 1.9327923 0.95419526
-3.698457 1.9466763 0.95531923
-3.6966271 1.960569 0.95644313
-3.6947465 1.9744682 0.95756698
-3.6928148 1.9883763 0.95869088
-3.6865501 1.9999672 0.95869088
-3.6845238 2.0138762 0.95981479
-3.6824472 2.0277913 0.96093875
-3.6803181 2.0417137 0.96206254
-3.6781392 2.0556421 0.9631865
-3.6759083 2.0695782 0.96431041
-3.6736267 2.0835192 0.96543437
-3.6712925 2.0974672 0.96655816
-3.6689081 2.1114202 0.96768212
-3.6664717 2.1253798 0.96880603
-3.6639843 2.1393442 0.96992999
-3.6610687 2.1539531 0.97105378
-3.662667 2.1704111 0.97330165
-3.6600139 2.1844044 0.97442561
-3.6573091 2.1984012 0.9755494
-3.654552 2.212404 0.97667336
-3.6517439 2.2264099 0.97779727
-3.644731 2.2378716 0.97779727
-3.6418269 2.2518728 0.97892118
-3.63887 2.2658787 0.98004514
-3.6358612 2.279887 0.98116899
-3.6328001 2.2938998 0.98229289
-3.6296873 2.307915 0.9834168
-3.6265218 2.3219342 0.98454076
-3.627399 2.3385952 0.98678851
-3.6241205 2.3526328 0.98791242
-3.6207902 2.3666718 0.98903638
-3.6214762 2.3833923 0.99128413
-3.6180325 2.3974485 0.99240804
-3.6145353 2.4115076 0.993532
-3.6150303 2.4282837 0.99577975
-3.6114194 2.4423587 0.99690366
-3.6077564 2.4564338 0.99802762
-3.6040399 2.4705098 0.99915141
-3.6002705 2.4845879 1.0002754
-3.5960121 2.4992938 1.0013993
-3.592135 2.5133715 1.0025232
-3.5921869 2.5302556 1.004771
-3.5881948 2.5443461 1.0058949
-3.5881145 2.5612679 1.0081427
-3.584007 2.5753701 1.0092666
-3.5798459 2.5894728 1.0103905
-3.5795708 2.6064417 1.0126383
-3.5752935 2.6205549 1.0137622
-3.5670435 2.6317737 1.0137622
-3.5548468 2.6400628 1.0126383
-2.0832031 1.5573012 0.59117395
-2.0899794 1.5726265 0.59454572
-2.0850286 1.5791843 0.59454572
-2.0761824 1.5827732 0.59342176
-2.0673349 1.5863218 0.59229791
-2.0584853 1.5898303 0.59117395
-2.0496337 1.5932996 0.5900501
-2.0522926 1.6057349 0.59229791
-2.0510654 1.615189 0.59342176
-2.0380626 1.6159279 0.59117395
-3.5333812 2.8196514 1.0339925
-3.532598 2.8362229 1.0362403
-3.5274591 2.8503695 1.0373642
-3.5222676 2.8645108 1.0384881
-3.5207911 2.8817344 1.040736
-3.515481 2.8958781 1.0418599
-3.5138674 2.9131277 1.0441077
-3.5121801 2.9303942 1.0463555
-3.5104187 2.9476802 1.0486033
-3.5085838 2.9649827 1.0508511
-3.5029626 2.9791477 1.051975
-3.5009894 2.9964736 1.0542228
-3.4952493 3.0106373 1.0553466
-3.4931374 3.0279851 1.0575945
-3.4872785 3.0421476 1.0587184
-3.4850268 3.0595162 1.0609663
-3.4827001 3.0769017 1.0632141
-3.480299 3.0943015 1.0654619
-3.4778221 3.1117179 1.0677097
-3.4747248 3.1297541 1.0699575
-3.4720948 3.1471994 1.0722053
-3.4693897 3.1646578 1.0744531
-3.4666085 3.1821315 1.0767009
-3.4637523 3.1996176 1.0789486
-3.4608197 3.2171185 1.0811965
-3.4578121 3.2346311 1.0834442
-3.4547279 3.2521577 1.0856922
-3.4480314 3.2663453 1.0868161
-3.4448051 3.2838852 1.0890639
-3.4379878 3.2980635 1.0901878
-3.4346194 3.3156159 1.0924355
-3.4311762 3.333179 1.0946834
-3.4276552 3.350754 1.0969312
-3.4240582 3.3683386 1.099179
-3.4238462 3.3893619 1.1025506
-3.4200852 3.4069781 1.1047986
-3.4162462 3.4246047 1.1070462
-3.4157612 3.4457002 1.1104181
-3.4117579 3.4633551 1.1126659
-3.4070694 3.4816144 1.1149137
-3.4029074 3.4992869 1.1171615
-3.398669 3.5169668 1.1194093
-3.394352 3.5346551 1.1216571
-3.3899586 3.5523503 1.1239049
-3.3854861 3.5700533 1.1261526
-3.3809371 3.5877628 1.1284006
-3.3796391 3.6090357 1.1317723
-3.3749228 3.6267684 1.1340201
-3.373435 3.6480846 1.1373918
-3.368551 3.665839 1.1396395
-3.3668733 3.6871974 1.1430113
-3.3618212 3.7049723 1.1452591
-3.3599522 3.7263708 1.1486307
-3.3553848 3.7435796 1.1508787
-3.350745 3.7607942 1.1531265
-3.3486028 3.7822452 1.1564982
-3.3431396 3.8000627 1.1587459
-3.3401377 3.8221343 1.1621177
-3.333833 3.8405471 1.1643655
-3.3306234 3.8626506 1.1677371
-3.3279817 3.8841951 1.171109
-3.3227603 3.9014702 1.1733567
-3.3199294 3.9230464 1.1767284
-3.3176839 3.9440649 1.1801002
-3.3146498 3.9656832 1.1834719
-3.3084011 3.9835725 1.1857197
-3.3051724 4.0052204 1.1890914
-3.2987518 4.0231185 1.1913391
-3.2953281 4.0447941 1.194711
-3.2910912 4.0670614 1.1980827
-3.2844038 4.0849743 1.2003304
-3.2806766 4.1066928 1.2037022
-3.2768462 4.1284266 1.2070739
-3.2736354 4.1496058 1.2104455
-3.2695992 4.1713738 1.2138174
-3.2654593 4.1931562 1.2171891
-3.2612135 4.2149549 1.2205607
-3.2561238 4.2373357 1.2239324
-3.2516658 4.2591615 1.2273042
-3.2471015 4.2810016 1.2306759
-3.2424331 4.3028541 1.2340475
-3.2405791 4.3286195 1.2385432
-3.2356868 4.3505073 1.241915
-3.2335849 4.3763247 1.2464106
-3.2284684 4.3982444 1.2497823
-3.2232473 4.4201741 1.2531539
-3.2179189 4.4421158 1.2565256
-3.2153316 4.4680209 1.2610213
-3.2097788 4.4899912 1.2643931
-3.2041204 4.5119691 1.2677647
-3.2011628 4.5379381 1.2722603
-3.1952789 4.5599418 1.275632
-3.1892872 4.5819545 1.2790039
-3.1823852 4.6045289 1.2823756
-3.1761768 4.6265535 1.2857472
-3.1717935 4.6531639 1.2902428
-3.1653545 4.6752076 1.2936145
-3.1623459 4.7007499 1.2981102
-3.15839 4.7268648 1.3026059
-3.1543014 4.7530012 1.3071015
-3.1473968 4.7750912 1.3104731
-3.1430545 4.8012605 1.3149687
-3.1385772 4.8274498 1.3194643
-3.1339676 4.8536577 1.3239599
-3.1292231 4.8798847 1.3284556
-3.1243458 4.9061289 1.3329512
-3.119333 4.9323912 1.3374468
-3.1141875 4.9586697 1.3419424
-3.108906 4.9849648 1.3464381
-3.1034913 5.0112753 1.3509337
-3.0979407 5.037601 1.3554293
-3.0947955 5.068099 1.3610488
-3.0889618 5.094461 1.3655444
-3.0855072 5.1250095 1.371164
-3.0793898 5.1514058 1.3756596
-3.0756249 5.1820025 1.3812791
-3.0692234 5.2084293 1.3857747
-3.0626872 5.2348666 1.3902704
-3.0560138 5.2613144 1.394766
-3.0516396 5.2919917 1.4003855
-3.0446808 5.3184662 1.4048811
-3.0375869 5.3449478 1.4093767
-3.0327494 5.3756814 1.4149964
-3.0253692 5.4021854 1.419492
-3.0202193 5.4329538 1.4251114
-3.014905 5.4637446 1.4307309
-3.009428 5.4945545 1.4363505
-3.0028219 5.525908 1.44197
-2.99701 5.5567555 1.4475895
-2.9910352 5.5876193 1.453209
-2.9848948 5.6185017 1.4588286
-2.978591 5.6493998 1.4644481
-2.972121 5.6803141 1.4700676
-2.9664838 5.7107248 1.4756871
-2.9596903 5.7416682 1.4813067
-2.9549491 5.7769642 1.4880501
-2.9478118 5.807941 1.4936696
-2.9426985 5.8432817 1.5004131
-2.9373939 5.8786469 1.5071565
-2.9308624 5.9145479 1.5138999
-2.9230137 5.9455881 1.5195194
-2.917136 5.9810152 1.5262629
-2.9110644 6.0164633 1.5330063
-2.9047973 6.0519338 1.5397497
-2.8983374 6.0874224 1.5464931
-2.8927495 6.1224265 1.5532366
-2.8859069 6.1579533 1.55998
-2.8788676 6.1934981 1.5667235
-2.8716354 6.2290587 1.5734669
-2.8642077 6.2646341 1.5802103
-2.8565831 6.3002253 1.5869538
-2.8496549 6.3407707 1.5948211
-2.8416209 6.3763928 1.6015645
-2.8364792 6.4159875 1.6094319
-2.8280439 6.4516406 1.6161753
-2.8213561 6.4917712 1.6240426
-2.8144419 6.5319233 1.63191
-2.8053913 6.5676155 1.6386534
-2.7980421 6.6078014 1.6465207
-2.7904694 6.648005 1.654388
-2.7826703 6.6882272 1.6622554
-2.7734718 6.7289491 1.6701227
-2.7670588 6.7737103 1.679114
-2.759752 6.8135004 1.6869812
-2.7510364 6.8537869 1.6948487
-2.7420964 6.8940849 1.702716
-2.7347147 6.9389277 1.7117071
-2.7253077 6.9792528 1.7195745
-2.7174308 7.0241318 1.7285658
-2.7080669 7.0695009 1.7375571
-2.6996713 7.1144152 1.7465483
-2.6910217 7.1593451 1.7555395
-2.6821146 7.2042913 1.7645308
-2.6742179 7.2487845 1.773522
-2.6631362 7.2891831 1.7813892
-2.6551404 7.3387465 1.7915044
-2.6472127 7.3933797 1.8027434
-2.6369972 7.4383955 1.8117347
-4.0925407 12.146715 2.9480026
-4.000875 12.125922 2.9367635
-3.9552021 12.115274 2.931144
-3.9111297 12.109096 2.9266484
-3.8671389 12.102759 2.9221528
-3.8232229 12.096266 2.9176571
-3.7370713 12.087467 2.9097898
-2.8729005 9.3968334 2.257925
-2.8252158 9.4468822 2.2657924
-2.8079565 9.4977608 2.2759075
-2.7917695 9.5532999 2.2871466
-2.7691307 9.7018309 2.3186157
-2.7478964 9.7433062 2.326483
-2.7251213 9.7800503 2.3332267
-3.3007898 11.991617 2.860338
-3.2558961 11.983691 2.8558424
-3.2144458 11.979743 2.8524706
-3.1730494 11.975655 2.8490992
-3.1304805 11.966709 2.8446033
-3.087996 11.957616 2.8401077
-3.045603 11.948374 2.8356121
-3.0044837 11.943708 2.8322403
-2.9622536 11.934175 2.8277447
-2.9212716 11.929224 2.824373
-2.8803439 11.924137 2.8210015
-2.5500858 11.844653 2.7861602
-2.418638 11.78268 2.7659299
-2.3758235 11.761566 2.7591865
-2.3380613 11.754229 2.7558148
-2.2983181 11.747171 2.7524431
-2.2650852 11.773471 2.7569387
-2.2298927 11.790104 2.7591865
-2.1890035 11.787853 2.7569387
-2.1493382 11.780293 2.753567
-2.1097422 11.7726 2.7501953
-2.0710597 11.769573 2.7479475
-2.0315819 11.76162 2.744576
-1.9929949 11.758337 2.7423279
-1.9557022 11.74978 2.7389562
-1.9172052 11.74625 2.7367086
-1.8779862 11.737782 2.7333367
-1.8388393 11.729184 2.729965
-1.7997651 11.720456 2.7265935
-1.761482 11.716417 2.7243454
-1.7225389 11.707433 2.7209737
-1.684364 11.703141 2.7187259
-1.646233 11.698727 2.7164783
-1.6074762 11.689361 2.7131064
-1.5694495 11.684695 2.7108586
-1.5308347 11.675076 2.7074871
-1.4929138 11.670162 2.7052391
-1.4544297 11.660292 2.7018673
-1.4166166 11.655129 2.6996195
-1.3788502 11.649847 2.697372
-1.3390967 11.644674 2.6951239
-1.3014259 11.63914 2.6928761
-1.2632772 11.628641 2.6895046
-1.2257119 11.622862 2.6872566
-1.1897345 11.611907 2.6838849
-1.1522876 11.60589 2.681637
-1.1144179 11.594905 2.6782656
-1.0770857 11.588646 2.6760175
-1.0398039 11.582268 2.6737697
-1.0025728 11.575768 2.6715219
-0.96538657 11.569152 2.6692743
-0.928258 11.562415 2.6670263
-0.89118129 11.555558 2.6647785
-0.85415685 11.548583 2.6625307
-0.81717891 11.541491 2.6602831
-0.78026009 11.534279 2.658035
-0.74339461 11.526949 2.6557872
-0.70658296 11.519502 2.6535394
-0.6698193 11.511938 2.6512918
-0.63311625 11.504255 2.6490438
-0.59646809 11.496456 2.646796
-0.55987519 11.488541 2.6445482
-0.52355367 11.485376 2.6434243
-0.48705712 11.477229 2.6411767
-0.45262057 11.468887 2.6389287
-0.41622952 11.460515 2.6366808
-0.38006318 11.456897 2.6355569
-0.34377748 11.448295 2.6333094
-0.30768049 11.444448 2.6321855
-0.27160496 11.440487 2.6310616
-0.23546313 11.431541 2.6288135
-0.1994652 11.427354 2.6276896
-0.16342619 11.41818 2.6254418
-0.12750122 11.413767 2.6243181
-0.091560394 11.404367 2.6220703
-0.055685963 11.394855 2.6198223
-0.019872205 11.385228 2.6175745
0.015880525 11.37549 2.6153266
0.051600046 11.370513 2.614203
0.087244965 11.360551 2.6119552
0.12288053 11.35535 2.610831
0.15848427 11.350036 2.6097071
0.19397855 11.339739 2.6074593
0.22950229 11.334202 2.6063354
0.26499319 11.328555 2.6052117
0.30045083 11.322797 2.6040878
0.33588094 11.316926 2.6029639
0.37127113 11.310946 2.6018398
0.40662703 11.304854 2.6007159
0.44194835 11.298654 2.599592
0.47724071 11.292341 2.5984681
0.51249176 11.285919 2.5973442
0.54770726 11.279387 2.5962205
0.5828867 11.272746 2.5950966
0.61803585 11.265994 2.5939727
0.65314227 11.259132 2.5928485
0.68791431 11.247299 2.5906007
0.72293115 11.240221 2.5894768
0.75725436 11.223311 2.5861053
0.79285735 11.225736 2.587229
0.8284772 11.228049 2.5883529
0.15655732 2.034647 0.46192494
0.16178119 2.0195754 0.45855319
0.166913 2.0044913 0.45518148
0.17237012 1.9942492 0.45293367
0.17776453 1.9839927 0.45068586
0.18275248 1.973754 0.44843808
0.18802319 1.9634705 0.44619027
0.19371076 1.9580216 0.44506633
0.19887108 1.9477097 0.44281852
0.20447966 1.94223 0.44169462
0.21005476 1.9367344 0.44057071
0.21559735 1.931223 0.43944681
0.22166315 1.9305362 0.43944681
0.22772779 1.9298302 0.43944681
0.2343753 1.933942 0.44057071
0.24044955 1.9331961 0.44057071
0.24652141 1.9324312 0.44057071
0.25259188 1.9316471 0.44057071
0.25865883 1.9308441 0.44057071
0.2650604 1.9299756 0.44057071
0.27112204 1.9291334 0.44057071
0.27615276 1.9234979 0.43944681
0.28219399 1.9226209 0.43944681
0.28823245 1.9217249 0.43944681
0.29426804 1.92081 0.43944681
0.30030176 1.9198759 0.43944681
0.30633149 1.918923 0.43944681
0.3123582 1.9179512 0.43944681
0.31918007 1.9217666 0.44057071
0.32521564 1.9207546 0.44057071
0.33207747 1.9245243 0.44169462
0.33862826 1.9283292 0.44281852
0.34554315 1.9320517 0.44394243
0.35248369 1.9357499 0.44506633
0.36033878 1.9442141 0.44731417
0.36734757 1.9478601 0.44843808
0.37438282 1.9514813 0.44956198
0.38085219 1.950229 0.44956198
0.38792673 1.9538014 0.45068586
0.39406258 1.9525732 0.45068586
0.40117341 1.9560984 0.45180979
0.40796894 1.959669 0.45293367
0.41613907 1.967911 0.45518148
0.42538795 1.9808844 0.45855319
0.43576029 1.9985791 0.46304882
0.44624904 2.016228 0.46754444
0.45791966 2.038584 0.47316399
0.47081777 2.0656369 0.47990739
0.48935041 2.0863543 0.48552689
1.8240178 7.6682949 1.809487
1.8547502 7.6960049 1.8173543
2.0629976 8.1112099 1.9218775
2.0945513 8.1282778 1.9274969
1.9769973 7.3834138 1.7544155
2.0373654 7.331594 1.7465483
2.0775368 7.3861279 1.7611591
2.1354158 7.5013967 1.7903805
2.1616678 7.504015 1.7926284
2.170234 7.445735 1.7802653
2.1784554 7.3874769 1.7679024
2.1960814 7.3619218 1.7634068
2.216387 7.3456569 1.7611591
2.2294979 7.3060384 1.7532916
2.2382448 7.2574897 1.7431765
2.2697356 7.2783294 1.74992
2.2971756 7.2901506 1.7544155
2.3442044 7.2751646 1.7544155
2.3549812 7.2307029 1.7454244
2.3883476 7.2556634 1.7532916
2.3726828 7.1325507 1.725194
2.3857636 7.0973535 1.7184507
2.3955169 7.0529165 1.7094594
2.4192426 7.049964 1.7105832
2.4634891 7.0346251 1.7105832
2.4758313 6.9992914 1.7038399
2.4928899 6.977715 1.7004682
2.5098369 6.9561005 1.6970963
2.5300088 6.943604 1.6959724
4.0759859 11.078198 2.7142303
4.1124644 11.069906 2.7153542
4.1472197 11.056932 2.7153542
4.1819339 11.043849 2.7153542
6.4878588 16.666285 4.1168637
4.3541002 11.081871 2.7378323
4.39428 11.081725 2.741204
4.4328156 11.071615 2.7423279
4.4675746 11.057635 2.7423279
4.5040431 11.053353 2.744576
4.5405974 11.043656 2.7456999
4.5827351 11.047338 2.7501953
4.6174173 11.032887 2.7501953
4.6520596 11.018324 2.7501953
7.0348911 16.517025 4.1325984
7.0886669 16.499319 4.1337223
7.1482129 16.49485 4.1382179
7.2019467 16.476776 4.1393418
7.2615423 16.471899 4.1438375
7.31919 16.462362 4.1472092
7.3768501 16.452625 4.1505809
7.4345202 16.442688 4.1539526
7.4942312 16.436979 4.1584482
7.5519357 16.426636 4.1618199
7.6096487 16.41609 4.1651917
7.6673708 16.405346 4.1685634
7.723032 16.38999 4.1708112
7.7828441 16.383247 4.1753068
7.8447952 16.38069 4.1809263
5.4539676 11.297172 2.8850639
5.4809084 11.262456 2.8805683
5.4840765 11.17957 2.8637097
5.3494029 10.489745 2.7074871
5.31954 10.192667 2.6434243
