# .PCD v0.7 - Point Cloud Data file format
VERSION 0.7
FIELDS x y z
SIZE 4 4 4
TYPE F F F
COUNT 1 1 1
WIDTH 1447
HEIGHT 1
VIEWPOINT 0 0 0 1 0 0 0
POINTS 1447
DATA ascii
2.5365767 -2.5286205 -0.43507355
2.532124 -2.5400915 -0.43568289
2.5245762 -2.5475931 -0.43568289
2.5165603 -2.5555117 -0.43568289
2.5085196 -2.563405 -0.43568289
2.5004539 -2.5712731 -0.43568289
2.4923637 -2.5791159 -0.43568289
2.4808116 -2.5833538 -0.43507355
2.4726834 -2.5911348 -0.43507355
2.4577012 -2.5916882 -0.43385485
2.4529505 -2.603008 -0.43446419
2.4311922 -2.5962117 -0.4320268
2.4388776 -2.6365159 -0.43629223
4.9427524 -5.3770857 -0.89208359
3.8072031 -4.1694193 -0.6885618
3.7707415 -4.155632 -0.68429631
2.4383218 -2.7042317 -0.4423857
2.4298141 -2.7118785 -0.4423857
2.4179826 -2.7157922 -0.44177637
2.4061503 -2.7196581 -0.441167
2.4041479 -2.7346582 -0.4423857
2.3960233 -2.7417793 -0.4423857
2.3971598 -2.7605345 -0.44421375
2.3625386 -2.7379932 -0.43933898
3.6040418 -4.2034225 -0.67515618
3.5908184 -4.2147241 -0.67515618
3.5832338 -4.2341847 -0.67637479
3.5699141 -4.2454209 -0.67637479
3.5597413 -4.2604237 -0.67698419
3.5502553 -4.274785 -0.67759353
3.5399668 -4.2897453 -0.67820293
3.5296192 -4.3046823 -0.67881221
3.519213 -4.3195972 -0.67942154
3.5181153 -4.3460612 -0.68185896
3.5106652 -4.3648262 -0.68307769
2.2672939 -2.8554904 -0.44299507
2.2552383 -2.8587029 -0.4423857
2.2095082 -2.8189034 -0.43507355
2.2219861 -2.8532393 -0.43933898
3.9470811 -5.1014037 -0.78727597
3.9531043 -5.1406302 -0.7915414
3.890722 -5.1258368 -0.7854479
3.8557787 -5.114934 -0.78179181
3.8218417 -5.103188 -0.77813572
3.7575107 -5.0521202 -0.76838619
3.730705 -5.0472832 -0.76594883
3.7089558 -5.0509787 -0.76473016
3.6901445 -5.0585961 -0.76412076
3.6713221 -5.0661454 -0.76351142
3.6495891 -5.0695992 -0.76229268
3.6220973 -5.0648928 -0.75985533
3.5917971 -5.0560184 -0.75680864
3.56445 -5.0510583 -0.75437123
3.5352008 -5.0412955 -0.75132447
3.5071204 -5.0367002 -0.74888712
3.4771645 -5.0272856 -0.74584037
3.4501131 -5.0218229 -0.74340296
3.4231303 -5.0162401 -0.7409656
3.3962166 -5.0105376 -0.73852819
3.3702459 -5.0041275 -0.73609084
3.3434711 -4.9981909 -0.73365343
3.3195131 -4.9962692 -0.73182535
3.2928672 -4.9901047 -0.729388
3.2662933 -4.9838214 -0.72695059
3.2389219 -4.9779868 -0.72451323
3.2124934 -4.9714646 -0.72207582
3.1834579 -4.9606495 -0.71902913
3.1580534 -4.9533343 -0.71659172
3.1318574 -4.9464593 -0.7141543
3.1057358 -4.9394689 -0.71171695
3.0788283 -4.9329009 -0.70927954
3.0502443 -4.9214578 -0.70623285
3.0243635 -4.9141107 -0.70379549
2.9994149 -4.9061255 -0.70135802
2.973686 -4.8985553 -0.69892067
2.9505966 -4.8951221 -0.69709259
2.9241562 -4.8878446 -0.69465524
2.9011829 -4.8842068 -0.69282722
2.8757403 -4.8761983 -0.69038981
2.853735 -4.8718629 -0.6885618
2.8284359 -4.8636436 -0.68612438
2.8056982 -4.859612 -0.68429631
2.7830141 -4.8554854 -0.6824683
2.7603834 -4.8512645 -0.68064028
2.7378066 -4.8469491 -0.67881221
2.7152846 -4.8425403 -0.67698419
2.6928172 -4.838038 -0.67515618
2.6704051 -4.8334427 -0.67332816
2.6456625 -4.8244023 -0.67089075
2.6233754 -4.8196135 -0.66906267
2.6011446 -4.8147326 -0.66723466
2.5766253 -4.8053856 -0.66479725
2.5545218 -4.8003135 -0.66296923
2.5324757 -4.7951498 -0.66114116
2.5104873 -4.7898955 -0.65931314
2.4885571 -4.7845507 -0.65748513
2.4666853 -4.7791152 -0.65565705
2.4448721 -4.7735896 -0.65382898
2.4253666 -4.7723985 -0.65261036
2.4036582 -4.7667007 -0.65078223
2.38201 -4.7609138 -0.64895421
2.3604217 -4.7550383 -0.6471262
2.3388937 -4.749074 -0.64529818
2.3196051 -4.7474804 -0.64407945
2.2981853 -4.7413468 -0.64225143
2.2789774 -4.7395983 -0.6410327
2.2576666 -4.7332969 -0.63920468
2.2385404 -4.7313938 -0.63798594
2.2173405 -4.724925 -0.63615793
2.1982975 -4.7228699 -0.63493931
2.1772089 -4.7162347 -0.63311118
2.156184 -4.7095146 -0.63128316
2.1352229 -4.7027092 -0.62945515
2.114326 -4.6958184 -0.62762713
2.0955167 -4.6933746 -0.6264084
2.0747344 -4.6863208 -0.62458038
2.0560122 -4.6837273 -0.62336165
2.0373268 -4.6810627 -0.62214303
2.0186784 -4.6783266 -0.62092429
1.9981161 -4.6709566 -0.61909628
1.9795569 -4.6680732 -0.61787754
1.9591126 -4.6605444 -0.61604953
1.9387352 -4.6529331 -0.61422151
1.9203193 -4.6498265 -0.61300278
1.9000622 -4.6420579 -0.61117476
1.8817384 -4.6388073 -0.60995609
1.8634537 -4.6354866 -0.60873735
1.8452085 -4.6320968 -0.60751861
1.8270032 -4.6286387 -0.6063
1.8096451 -4.6247959 -0.60508126
1.7907126 -4.6215167 -0.60386258
1.7726278 -4.6178532 -0.60264385
1.7545838 -4.6141224 -0.60142523
1.7383301 -4.6149673 -0.60081583
1.7203538 -4.6111064 -0.59959716
1.7006986 -4.6025229 -0.59776908
1.6811146 -4.5938621 -0.59594107
1.6599109 -4.5804572 -0.59350371
1.6404842 -4.5716362 -0.59167564
1.6219258 -4.5624552 -0.58984756
1.605937 -4.5628471 -0.58923829
1.5883286 -4.558497 -0.58801955
1.5723816 -4.5587726 -0.58741021
1.5548453 -4.554297 -0.58619153
1.5373524 -4.5497556 -0.5849728
1.5199038 -4.5451503 -0.58375412
1.502499 -4.5404797 -0.58253545
1.4851388 -4.5357447 -0.58131677
1.467823 -4.5309458 -0.58009803
1.4505522 -4.526083 -0.57887936
1.4310387 -4.516675 -0.57705128
1.4138741 -4.5116773 -0.57583266
1.3952857 -4.5018764 -0.57400459
1.3782272 -4.4967475 -0.57278591
1.3597754 -4.4868069 -0.57095784
1.3428241 -4.4815488 -0.56973916
1.3273288 -4.4809871 -0.56912982
1.3104557 -4.4756093 -0.56791115
1.2936296 -4.47017 -0.56669247
1.2789954 -4.4692173 -0.56608307
1.2622477 -4.4636621 -0.5648644
1.2455478 -4.4580464 -0.56364572
1.2302158 -4.4571533 -0.56303638
1.2135966 -4.4514208 -0.56181771
1.1983156 -4.4504189 -0.56120831
1.1817778 -4.4445691 -0.55998963
1.1652887 -4.4386601 -0.55877095
1.1488482 -4.4326911 -0.55755222
1.1324569 -4.4266624 -0.55633354
1.1161147 -4.4205747 -0.55511487
1.1010219 -4.4192438 -0.55450547
1.067386 -4.4019599 -0.55145878
0.84115767 -3.5171936 -0.43933898
1.0012449 -4.3716645 -0.54597467
0.80017519 -3.5420079 -0.441167
0.97452152 -4.3776989 -0.54597467
0.94280493 -4.3643322 -0.54353726
0.92495871 -4.347856 -0.54109991
0.90850228 -4.3411846 -0.53988117
0.89385825 -4.3391562 -0.53927183
0.88022196 -4.3419433 -0.53927183
0.86657703 -4.344687 -0.53927183
0.85196811 -4.3425183 -0.53866249
0.82264853 -4.3330145 -0.53683442
0.79003721 -4.3088098 -0.53317839
0.75701475 -4.2844996 -0.5295223
0.74270272 -4.2819667 -0.5289129
0.72674924 -4.2696018 -0.52708489
0.7133323 -4.2718639 -0.52708489
0.69910628 -4.269186 -0.52647555
0.68647742 -4.2762613 -0.52708489
0.66109878 -4.2852802 -0.52769423
0.64689165 -4.2824287 -0.52708489
0.63270956 -4.27953 -0.52647555
0.5903098 -4.2705555 -0.52464747
0.56151974 -4.2594199 -0.52281946
0.5462361 -4.2463965 -0.52099144
0.53351063 -4.2530155 -0.52160078
0.52014673 -4.2546706 -0.52160078
0.46212152 -4.226419 -0.51733536
0.44884154 -4.22785 -0.51733536
0.43555716 -4.229239 -0.51733536
0.42226845 -4.2305865 -0.51733536
0.40780136 -4.2120624 -0.51489794
0.39364129 -4.2034402 -0.51367927
0.37819791 -4.1799436 -0.51063257
0.36420101 -4.1712232 -0.50941384
0.35234332 -4.1871824 -0.51124185
0.33998838 -4.1981621 -0.51246059
0.32756788 -4.2091045 -0.51367927
0.31434295 -4.210113 -0.51367927
0.30076101 -4.20613 -0.51306993
0.28720772 -4.2021027 -0.51246059
0.27368215 -4.1980319 -0.51185119
0.260185 -4.1939178 -0.51124185
0.24671642 -4.1897607 -0.51063257
0.23300035 -4.1806049 -0.50941384
0.21934426 -4.1714048 -0.50819516
0.20574826 -4.1621594 -0.50697643
0.19198309 -4.1479135 -0.50514841
0.17852333 -4.1385794 -0.50392973
0.16492583 -4.1242437 -0.50210166
0.15142018 -4.1098638 -0.50027364
0.13834077 -4.1053591 -0.49966431
0.12529115 -4.1008129 -0.49905494
0.11227149 -4.0962253 -0.49844557
0.099161498 -4.0866351 -0.49722692
0.086217664 -4.081965 -0.49661756
0.073214956 -4.0722919 -0.49539888
0.060273863 -4.0625772 -0.49418017
0.047452569 -4.0577841 -0.4935708
0.03466199 -4.0529509 -0.4929615
0.021955946 -4.058002 -0.4935708
0.0091959881 -4.0530887 -0.4929615
-0.0035502049 -4.0679855 -0.49478954
-0.016330142 -4.0679545 -0.49478954
-0.028932355 -4.0430698 -0.49174279
-0.066459104 -4.0078835 -0.48747736
-0.080440678 -4.0423732 -0.49174279
-0.093825713 -4.0718694 -0.49539888
-0.10700713 -4.0864372 -0.49722692
-0.11970972 -4.1059446 -0.49966431
-0.13244812 -4.1005878 -0.49905494
-0.14515406 -4.095192 -0.49844557
-0.15782741 -4.089757 -0.49783626
-0.17026106 -4.0793238 -0.49661756
-0.18285325 -4.0738111 -0.49600819
-0.19541253 -4.0682597 -0.49539888
-0.2079387 -4.0626693 -0.49478954
-0.22043167 -4.0570407 -0.49418017
-0.23317616 -4.0563278 -0.49418017
-0.24561796 -4.0506215 -0.4935708
-0.25834215 -4.04983 -0.4935708
-0.27073231 -4.0440474 -0.4929615
-0.28343573 -4.0431767 -0.4929615
-0.29577374 -4.0373168 -0.49235213
-0.30915996 -4.0363135 -0.49235213
-0.32183892 -4.0353227 -0.49235213
-0.33492476 -4.0392375 -0.4929615
-0.34761274 -4.0381651 -0.4929615
-0.36029729 -4.0370531 -0.4929615
-0.37115157 -4.0161347 -0.49052411
-0.38140574 -3.9902477 -0.48747736
-0.39080891 -3.9644046 -0.48443064
-0.40175438 -3.9483454 -0.48260257
-0.41208494 -3.9273212 -0.48016518
-0.42884606 -3.9604704 -0.48443064
-0.44293538 -3.9739003 -0.48625869
-0.45837542 -3.9921308 -0.48869604
-0.47068125 -4.0006928 -0.48991475
-0.48324746 -3.9991944 -0.48991475
-0.49580893 -3.9976566 -0.48991475
-0.50836545 -3.9960792 -0.48991475
-0.52155882 -3.9993834 -0.49052411
-0.53412068 -3.9977252 -0.49052411
-0.54196858 -3.9616089 -0.48625869
-0.55165815 -3.9352164 -0.48321193
-0.82024139 -5.2499428 -0.6477356
-0.83673054 -5.2473397 -0.6477356
-0.85548061 -5.2644281 -0.65017295
-0.88094038 -5.3155699 -0.65687573
-0.97074443 -5.6376104 -0.69770199
-0.99016571 -5.644309 -0.69892067
-1.0070201 -5.6362853 -0.69831133
-1.0256102 -5.6379762 -0.69892067
-1.0424139 -5.629847 -0.69831133
-1.0600954 -5.626544 -0.69831133
-1.0777665 -5.6231861 -0.69831133
-1.0954269 -5.6197724 -0.69831133
-1.1130766 -5.6163034 -0.69831133
-1.1307153 -5.6127787 -0.69831133
-1.1493219 -5.6089983 -0.69831133
-1.1669375 -5.60536 -0.69831133
-1.1845415 -5.601666 -0.69831133
-1.2021338 -5.5979171 -0.69831133
-1.2197142 -5.5941129 -0.69831133
-1.2362101 -5.5854077 -0.69770199
-1.2537512 -5.5814967 -0.69770199
-1.271279 -5.5775304 -0.69770199
-1.288795 -5.5735092 -0.69770199
-1.3074316 -5.5742645 -0.69831133
-0.86602139 -3.5418153 -0.44299507
-0.87833786 -3.5438938 -0.44360438
-0.889467 -3.541117 -0.44360438
-0.89691508 -3.5238771 -0.44177637
-0.9104597 -3.530653 -0.44299507
-0.92280132 -3.5325768 -0.44360438
-0.93516409 -3.5344582 -0.44421375
-0.94626331 -3.5315027 -0.44421375
-0.95865268 -3.5333021 -0.44482309
-0.96974814 -3.530273 -0.44482309
-0.98083401 -3.5272088 -0.44482309
-0.99191022 -3.5241101 -0.44482309
-1.0029767 -3.5209765 -0.44482309
-1.0140332 -3.5178082 -0.44482309
-1.0250797 -3.5146053 -0.44482309
-1.0361161 -3.5113676 -0.44482309
-1.0471423 -3.508095 -0.44482309
-1.0581582 -3.5047882 -0.44482309
-1.0677142 -3.4967003 -0.44421375
-1.0786942 -3.4933286 -0.44421375
-1.089663 -3.4899228 -0.44421375
-1.0961396 -3.4722846 -0.4423857
-1.122131 -3.5161018 -0.44847918
-1.1346953 -3.5172822 -0.44908851
-1.7780671 -5.4528923 -0.69953001
-1.7957914 -5.4523063 -0.70013934
-1.8129114 -5.4466376 -0.70013934
-1.8300129 -5.4409156 -0.70013934
-1.8496435 -5.4395156 -0.70074874
-1.8667231 -5.4336777 -0.70074874
-1.8821571 -5.4230981 -0.70013934
-1.7815601 -4.932261 -0.63920468
-1.7936451 -4.917315 -0.63798594
-1.2550595 -3.4074807 -0.441167
-1.2640284 -3.3988698 -0.44055769
-1.2624887 -3.3623598 -0.43629223
-1.2853637 -3.3589959 -0.4369016
-1.3137918 -3.4012349 -0.44299507
-1.9121567 -4.9044275 -0.64164209
-1.9311895 -4.9076324 -0.64286077
-1.9520929 -4.9153781 -0.64468884
-1.9656785 -4.9046144 -0.64407945
-1.9810771 -4.8984151 -0.64407945
-1.9927059 -4.882978 -0.64286077
-2.0061469 -4.8721042 -0.64225143
-2.0252509 -4.8749437 -0.64347011
-1.4190129 -3.3856187 -0.44604179
-1.4257767 -3.3720021 -0.44482309
-1.4344161 -3.3629417 -0.44421375
-1.4449739 -3.3584187 -0.44421375
-1.4574933 -3.3584151 -0.44482309
-1.470027 -3.358366 -0.44543245
-1.4825745 -3.3582711 -0.44604179
-1.4931176 -3.3535969 -0.44604179
-1.5077113 -3.3579443 -0.44726047
-2.3902626 -5.2790976 -0.70684218
-2.4098177 -5.2756562 -0.70745152
-2.4305322 -5.2770748 -0.70867026
-2.4554596 -5.2874174 -0.71110761
-2.4753439 -5.2890983 -0.71232629
-2.4940655 -5.2857838 -0.71293563
-2.510659 -5.2779226 -0.71293563
-2.5293736 -5.2744837 -0.71354502
-2.5459316 -5.2665114 -0.71354502
-2.5646379 -5.262948 -0.7141543
-2.5811594 -5.2548652 -0.7141543
-2.5998566 -5.2511783 -0.7147637
-2.6185567 -5.2474251 -0.71537304
-2.6381743 -5.2431459 -0.71598238
-2.654633 -5.2348323 -0.71598238
-2.6710658 -5.2264667 -0.71598238
-2.6783829 -5.2004018 -0.71354502
-2.6604147 -5.1258893 -0.70440477
-2.6000175 -4.9334588 -0.68003094
-2.5829177 -4.8639035 -0.67150003
-2.5958443 -4.8513894 -0.67089075
-2.6110725 -4.8432107 -0.67089075
-2.6262751 -4.8349838 -0.67089075
-2.6462164 -4.8354158 -0.67210943
-2.6637905 -4.8314247 -0.67271876
-2.6837749 -4.8317089 -0.67393744
-2.698941 -4.8232536 -0.67393744
-1.8075247 -3.2065303 -0.44726047
-1.8175889 -3.2008362 -0.44726047
-1.8276356 -3.1951103 -0.44726047
-1.8401421 -3.1936531 -0.44786984
-1.847675 -3.1835639 -0.44726047
-2.2826293 -3.8489754 -0.54475594
-2.3176136 -3.8801305 -0.55024004
-1.8846613 -3.1328864 -0.44421375
-2.251328 -3.688267 -0.52586621
-2.2315307 -3.5546074 -0.51063257
-2.2453384 -3.5517738 -0.51124185
-2.2698107 -3.5656347 -0.5142886
-2.291714 -3.5751987 -0.51672602
-2.3083167 -3.5763211 -0.51794469
-2.324949 -3.5773737 -0.51916337
-2.3361764 -3.5700519 -0.51916337
-2.3419197 -3.5544071 -0.51794469
-2.3503311 -3.5428967 -0.51733536
-2.36145 -3.5354953 -0.51733536
-2.3836229 -3.5445318 -0.51977271
-2.4030933 -3.5493543 -0.52160078
-2.4226179 -3.5540895 -0.52342886
-2.438767 -3.5550704 -0.52464747
-2.4561846 -3.5551298 -0.52586621
-2.4701748 -3.5514698 -0.52647555
-2.4870129 -3.5518227 -0.52769423
-2.5010183 -3.5480483 -0.52830362
-2.5150244 -3.5442204 -0.5289129
-2.5290313 -3.5403402 -0.5295223
-2.5430384 -3.5364068 -0.53013164
-2.5541358 -3.5284002 -0.53013164
-2.5681307 -3.5243695 -0.53074098
-2.5785763 -3.5167344 -0.53074098
-2.5931721 -3.5121565 -0.53135037
-2.6071532 -3.5079753 -0.53195965
-2.6247184 -3.5072575 -0.53317839
-2.6380987 -3.5034187 -0.53378773
-2.6520896 -3.4990683 -0.53439707
-2.6690891 -3.498611 -0.53561574
-2.6830895 -3.4941447 -0.53622514
-2.7001231 -3.4935515 -0.53744376
-2.7171795 -3.4928858 -0.53866249
-2.7342582 -3.4921472 -0.53988117
-2.7513595 -3.4913354 -0.54109991
-2.7653975 -3.4865627 -0.54170918
-2.7825303 -3.4856145 -0.54292792
-2.7965748 -3.480725 -0.54353726
-2.8106167 -3.4757805 -0.5441466
-2.8246546 -3.470783 -0.54475594
-2.8424394 -3.4690745 -0.54597467
-2.8564808 -3.4639571 -0.54658401
-2.873688 -3.4626031 -0.54780269
-2.887733 -3.4573674 -0.54841202
-2.9017742 -3.4520769 -0.54902142
-2.9158094 -3.4467328 -0.5496307
-2.933058 -3.4451127 -0.55084944
-2.9470952 -3.4396503 -0.55145878
-2.9643686 -3.437891 -0.55267745
-2.9816592 -3.4360583 -0.55389619
-2.9957037 -3.4304116 -0.55450547
-3.0130177 -3.4284394 -0.5557242
-3.0270619 -3.4226739 -0.55633354
-3.0443978 -3.4205618 -0.55755222
-3.0617516 -3.4183738 -0.55877095
-3.0752022 -3.412961 -0.55938023
-3.0931718 -3.4100962 -0.56059897
-3.1072152 -3.4040277 -0.56120831
-3.1252019 -3.4010131 -0.56242698
-3.13924 -3.3948226 -0.56303638
-3.1566517 -3.3922093 -0.56425506
-3.1734855 -3.3900745 -0.56547374
-3.1909256 -3.3873131 -0.56669247
-3.2083802 -3.3844745 -0.56791115
-3.2258477 -3.3815608 -0.56912982
-3.2398925 -3.3749893 -0.56973916
-3.257375 -3.3719332 -0.57095784
-3.2714119 -3.3652413 -0.57156724
-3.2889082 -3.3620427 -0.57278591
-3.3029361 -3.3552299 -0.57339525
-3.3204451 -3.3518884 -0.57461393
-3.3344631 -3.3449547 -0.57522327
-3.3519843 -3.3414707 -0.576442
-3.3695171 -3.3379083 -0.57766068
-3.3870597 -3.3342698 -0.57887936
-3.4081609 -3.3340232 -0.58070743
-3.4257348 -3.3302188 -0.58192611
-3.4433188 -3.3263354 -0.58314478
-3.4650719 -3.3252079 -0.5849728
-3.4826846 -3.3211551 -0.58619153
-3.5003052 -3.3170249 -0.58741021
-3.517935 -3.3128164 -0.58862895
-3.5391955 -3.3119211 -0.59045696
-3.5562747 -3.3081653 -0.59167564
-3.5775824 -3.3070831 -0.59350371
-3.5952635 -3.3025424 -0.59472239
-3.6171932 -3.300637 -0.59655041
-3.6348977 -3.2959235 -0.59776908
-3.6562946 -3.2944546 -0.59959716
-3.6740212 -3.289572 -0.60081583
-3.6917527 -3.2846117 -0.60203457
-3.7094896 -3.2795711 -0.60325325
-3.7272308 -3.2744527 -0.60447192
-3.7449768 -3.2692537 -0.6056906
-3.766475 -3.2672286 -0.60751861
-3.7836695 -3.2625206 -0.60873735
-3.8014381 -3.2570753 -0.60995609
-3.8229873 -3.2547684 -0.6117841
-3.8407717 -3.2491519 -0.61300278
-3.8591242 -3.2427828 -0.61422151
-3.8807206 -3.2401855 -0.61604953
-3.8985202 -3.2343149 -0.6172682
-3.9163201 -3.2283652 -0.61848688
-3.9379601 -3.2254801 -0.6203149
-3.9557726 -3.2193575 -0.62153363
-3.9774435 -3.2162759 -0.62336165
-3.9952662 -3.2099807 -0.62458038
-4.0130873 -3.2036061 -0.62579906
-4.0347972 -3.2002344 -0.62762713
-4.0526261 -3.1936867 -0.62884581
-4.0743623 -3.1901169 -0.63067383
-4.0961151 -3.1864433 -0.6325019
-4.1178856 -3.1826632 -0.63432992
-4.1396718 -3.1787789 -0.63615793
-4.1575298 -3.1717777 -0.63737667
-4.179338 -3.1676946 -0.63920468
-4.1971989 -3.1605191 -0.64042342
-4.215054 -3.1532636 -0.64164209
-4.2368894 -3.1488864 -0.64347011
-4.2547455 -3.1414564 -0.64468884
-4.2771459 -3.1361332 -0.64651686
-4.2990108 -3.1314468 -0.64834487
-4.321435 -3.1258996 -0.65017295
-4.3427796 -3.1217539 -0.65200096
-4.3646817 -3.1167464 -0.65382898
-4.3860521 -3.1123989 -0.65565705
-4.4079776 -3.1071815 -0.65748513
-4.4299126 -3.1018581 -0.65931314
-4.4523983 -3.0956497 -0.66114116
-4.4743519 -3.0901082 -0.66296923
-4.496315 -3.0844576 -0.66479725
-4.5182862 -3.0787008 -0.66662526
-4.540266 -3.0728352 -0.66845334
-4.5663714 -3.0696318 -0.67089075
-4.5883746 -3.0635374 -0.67271876
-4.610384 -3.0573361 -0.67454678
-4.6324 -3.0510256 -0.67637479
-4.6544213 -3.0446084 -0.67820293
-4.6764488 -3.0380812 -0.68003094
-4.6984797 -3.0314467 -0.68185896
-4.7246947 -3.0273802 -0.68429631
-4.7467422 -3.0205157 -0.68612438
-4.7729902 -3.0161924 -0.6885618
-4.7950525 -3.0090971 -0.69038981
-4.8213296 -3.0045164 -0.69282722
-4.8434048 -2.9971898 -0.69465524
-4.8654809 -2.989754 -0.69648325
-4.8917956 -2.9847929 -0.69892067
-4.9138818 -2.9771256 -0.70074874
-4.9402208 -2.9719057 -0.70318609
-4.967093 -2.9656832 -0.70562351
-4.9934611 -2.9601874 -0.70806086
-5.0198441 -2.9545538 -0.71049827
-5.0457258 -2.9496653 -0.71293563
-5.0678434 -2.941273 -0.7147637
-5.0942593 -2.9352472 -0.71720105
-5.1206861 -2.9290857 -0.71963847
-5.1471252 -2.9227855 -0.72207582
-5.1735744 -2.9163496 -0.72451323
-5.2000346 -2.9097748 -0.72695059
-5.2270103 -2.9021506 -0.729388
-5.2534871 -2.8952973 -0.73182535
-5.2799735 -2.8883049 -0.73426282
-5.3064661 -2.881176 -0.73670018
-5.3373346 -2.8762631 -0.73974687
-5.3638492 -2.8688426 -0.74218428
-5.394752 -2.8636122 -0.74523103
-5.4212852 -2.8559012 -0.74766839
-5.4478221 -2.8480532 -0.7501058
-5.4743638 -2.8400652 -0.75254315
-5.5009079 -2.8319399 -0.75498056
-5.5274558 -2.8236742 -0.75741792
-5.5584321 -2.8175149 -0.76046467
-5.5849905 -2.8089573 -0.76290208
-5.6159902 -2.8024781 -0.76594883
-5.6470046 -2.79583 -0.76899552
-5.6735773 -2.7868283 -0.77143294
-5.7046108 -2.7798595 -0.77447969
-5.717783 -2.7640848 -0.77508897
-5.744338 -2.7546909 -0.77752638
-3.2660952 -1.5410869 -0.43872961
-3.2799098 -1.5350263 -0.43994832
-3.2892177 -1.5268036 -0.44055769
-3.293998 -1.5164632 -0.44055769
-3.2942314 -1.5040456 -0.43994832
-3.2989402 -1.4936895 -0.43994832
-3.3081441 -1.4853506 -0.44055769
-3.312794 -1.4749509 -0.44055769
-3.3219509 -1.4665408 -0.441167
-3.3265419 -1.4560969 -0.441167
-3.3356524 -1.4476153 -0.44177637
-3.340184 -1.4371284 -0.44177637
-3.3629415 -1.4344165 -0.44421375
-3.3582895 -1.4199786 -0.44299507
-3.35358 -1.4055849 -0.44177637
-6.693347 -2.731504 -0.88294339
-6.6834922 -2.7030208 -0.88050598
-6.6785984 -2.6753063 -0.87867796
-6.6731324 -2.6488178 -0.87684989
-6.6675658 -2.6223922 -0.87502187
-6.6614461 -2.5971897 -0.87319386
-6.6561327 -2.5697227 -0.87136579
-6.6641731 -2.5487983 -0.87136579
-6.6814289 -2.5313671 -0.87258446
-6.7172265 -2.5208273 -0.87624061
-6.7623272 -2.5135436 -0.88111538
-6.8074474 -2.5060029 -0.88599014
-6.8479247 -2.4965019 -0.89025551
-6.8930769 -2.4884584 -0.89513028
-6.9335728 -2.478483 -0.8993957
-6.9740734 -2.4682798 -0.90366119
-7.0192618 -2.4594855 -0.90853596
-7.0597739 -2.4488072 -0.91280133
-7.1049829 -2.439508 -0.91767615
-7.1455035 -2.428354 -0.92194158
-7.1907277 -2.4185495 -0.92681634
-7.23596 -2.4084866 -0.93169111
-7.2816181 -2.3968914 -0.93656588
-7.3268628 -2.3862975 -0.94144064
-7.3721118 -2.3754449 -0.94631541
-7.4173646 -2.3643296 -0.95119023
-7.4626198 -2.3529551 -0.956065
-7.5078764 -2.3413196 -0.96093976
-7.5531335 -2.3294206 -0.96581453
-7.6027317 -2.3200364 -0.97129864
-7.6479931 -2.3076079 -0.97617346
-7.6980042 -2.2963378 -0.98165751
-7.7484202 -2.2834232 -0.98714161
-7.7984376 -2.2715614 -0.99262571
-7.8484573 -2.2594059 -0.99810988
-7.8984766 -2.2469604 -1.003594
-7.9484954 -2.2342207 -1.0090781
-7.9985108 -2.2211909 -1.0145622
-8.0485229 -2.2078669 -1.0200464
-8.0937395 -2.1929545 -1.0249212
-8.1437359 -2.1790602 -1.0304053
-8.2033205 -2.1674111 -1.0371082
-3.5586526 -0.8806771 -0.44543245
-3.5662227 -0.87067044 -0.44604179
-3.5496414 -0.85481447 -0.44360438
-3.5329955 -0.83907223 -0.441167
-3.5162861 -0.82344216 -0.43872961
-3.5236914 -0.81350827 -0.43933898
-3.5455856 -0.80683941 -0.44177637
-3.5626302 -0.79895401 -0.44360438
-3.5796602 -0.7909705 -0.44543245
-3.591826 -0.78183132 -0.44665113
-3.5942643 -0.77054387 -0.44665113
-3.5966673 -0.7592479 -0.44665113
-3.5990348 -0.74794537 -0.44665113
-3.5965047 -0.73563999 -0.44604179
-3.5987978 -0.72433805 -0.44604179
-3.5961876 -0.71206415 -0.44543245
-3.5887864 -0.69823909 -0.44421375
-3.5860877 -0.68602914 -0.44360438
-3.5833483 -0.67384213 -0.44299507
-3.5854475 -0.66258186 -0.44299507
-3.5875113 -0.65131408 -0.44299507
-3.5895398 -0.64004087 -0.44299507
-3.5915329 -0.62876034 -0.44299507
-3.5934904 -0.61747456 -0.44299507
-3.5954125 -0.60618275 -0.44299507
-3.5972991 -0.59488392 -0.44299507
-3.5991502 -0.58358026 -0.44299507
-3.6058669 -0.57304871 -0.44360438
-3.6076493 -0.56171817 -0.44360438
-3.6143024 -0.55112928 -0.44421375
-3.6160159 -0.53977239 -0.44421375
-3.6226046 -0.52912641 -0.44482309
-3.6242487 -0.51774353 -0.44482309
-3.6209426 -0.50566822 -0.44421375
-3.6225133 -0.49429068 -0.44421375
-3.6240485 -0.4829073 -0.44421375
-3.6255476 -0.47152013 -0.44421375
-3.6270111 -0.46012729 -0.44421375
-3.6334422 -0.44870526 -0.44482309
-3.6348338 -0.43728873 -0.44482309
-3.6411188 -0.4264442 -0.44543245
-3.6374373 -0.41507638 -0.44482309
-3.6338611 -0.40246645 -0.44421375
-3.6252391 -0.38998625 -0.44299507
-3.6215103 -0.37808046 -0.4423857
-3.617743 -0.36620104 -0.44177637
-3.6238143 -0.35531849 -0.4423857
-3.6297934 -0.34503365 -0.44299507
-3.6358595 -0.33344898 -0.44360438
-3.636889 -0.32202446 -0.44360438
-3.6428275 -0.3110199 -0.44421375
-3.6437867 -0.2995736 -0.44421375
-3.649657 -0.2885164 -0.44482309
-3.6505454 -0.27704877 -0.44482309
-3.6513977 -0.26557934 -0.44482309
-3.6521697 -0.25474441 -0.44482309
-3.6480427 -0.24230292 -0.44421375
-3.6438329 -0.23052722 -0.44360438
-3.6395855 -0.21878137 -0.44299507
-3.640255 -0.20734571 -0.44299507
-3.6408882 -0.19590896 -0.44299507
-3.6464422 -0.1847204 -0.44360438
-3.6519616 -0.17349985 -0.44421375
-3.6574464 -0.16224545 -0.44482309
-3.6628966 -0.1509593 -0.44543245
-3.6683118 -0.13963951 -0.44604179
-3.6736922 -0.12828816 -0.44665113
-3.6740773 -0.11674678 -0.44665113
-3.6744258 -0.10520326 -0.44665113
-3.6747382 -0.093659677 -0.44665113
-3.6700528 -0.082003333 -0.44604179
-3.6702921 -0.070473604 -0.44604179
-3.6655335 -0.058862522 -0.44543245
-3.6657004 -0.047347106 -0.44543245
-3.6658311 -0.035830244 -0.44543245
-3.6609628 -0.024281092 -0.44482309
-3.661021 -0.012779231 -0.44482309
-3.6560805 -0.0012764855 -0.44421375
-3.6560645 0.010847677 -0.44421375
-3.6510499 0.022303659 -0.44360438
-3.6509616 0.033773176 -0.44360438
-3.6508374 0.04524333 -0.44360438
-3.6506774 0.056712065 -0.44360438
-3.6504812 0.068181217 -0.44360438
-3.6452875 0.079540461 -0.44299507
-3.6450198 0.090991586 -0.44299507
-3.639755 0.10230336 -0.4423857
-3.6344554 0.11358199 -0.44177637
-3.6291208 0.12482928 -0.441167
-3.6237516 0.13604322 -0.44055769
-3.6233063 0.14742739 -0.44055769
-3.6277831 0.15902646 -0.441167
-3.6619666 0.17205356 -0.44543245
-4.0027566 0.21327862 -0.48747736
-4.0169311 0.22669092 -0.48930541
-4.0409689 0.24078584 -0.49235213
-4.045146 0.25378993 -0.4929615
-4.0542321 0.26715001 -0.49418017
-4.0583239 0.2802268 -0.49478954
-4.0574236 0.29297554 -0.49478954
-4.0564833 0.30572033 -0.49478954
-4.0456076 0.31768614 -0.4935708
-4.0346971 0.32958561 -0.49235213
-4.028697 0.3418403 -0.49174279
-4.0177159 0.3536244 -0.49052411
-4.011579 0.36649433 -0.48991475
-4.0104079 0.37909472 -0.48991475
-4.0141363 0.39217502 -0.49052411
-3.9733829 0.40079877 -0.48564932
-3.6895227 0.39559856 -0.45091656
-3.6685307 0.40500975 -0.44847918
-3.6771023 0.41765243 -0.44969785
-3.7990029 0.44359195 -0.46493152
-3.9059939 0.46852723 -0.47833717
-3.9537578 0.48686171 -0.48443064
-3.9620559 0.50052387 -0.48564932
-3.9703071 0.51424402 -0.48686802
-3.968672 0.52671403 -0.48686802
-3.9719155 0.53984827 -0.48747736
-3.9701998 0.55232322 -0.48747736
-3.9733584 0.56549305 -0.48808673
-3.9764729 0.57868707 -0.48869604
-3.984453 0.59263742 -0.48991475
-3.987478 0.60589707 -0.49052411
-3.9904585 0.61918253 -0.49113342
-3.9933953 0.63249171 -0.49174279
-3.9864895 0.64424193 -0.49113342
-3.9795494 0.65595615 -0.49052411
-3.9774692 0.66845447 -0.49052411
-3.9655662 0.67927152 -0.48930541
-3.9487464 0.68916613 -0.48747736
-3.9025865 0.69375128 -0.48199326
-3.8662043 0.6998201 -0.4777278
-3.8298225 0.70566827 -0.4734624
-3.8178313 0.7158668 -0.4722437
-3.8496871 0.73436731 -0.47650912
-3.8473611 0.74645734 -0.47650912
-3.8498659 0.75950158 -0.47711846
-3.8570576 0.77421749 -0.47833717
-3.8643315 0.7883144 -0.47955585
-3.8762736 0.80414897 -0.48138389
-3.8835833 0.81769145 -0.48260257
-3.8955543 0.83300179 -0.48443064
-3.897768 0.84628838 -0.48503998
-3.904783 0.86066532 -0.48625869
-3.9117458 0.87509573 -0.48747736
-3.8799398 0.88078815 -0.4838213
-3.8626451 0.88963199 -0.48199326
-3.8308358 0.89498776 -0.47833717
-3.8569791 0.91388398 -0.48199326
-3.8685656 0.92947417 -0.4838213
-3.8800914 0.9451471 -0.48564932
-3.8915572 0.9609006 -0.48747736
-3.8885193 0.97312206 -0.48747736
-3.8902535 0.98655283 -0.48808673
-3.8919411 1.000005 -0.48869604
-3.898386 1.0147268 -0.48991475
-3.8999777 1.0282346 -0.49052411
-3.9063175 1.0430416 -0.49174279
-3.8982306 1.0540137 -0.49113342
-3.8949001 1.0662546 -0.49113342
-3.848489 1.0665575 -0.48564932
-3.8021147 1.0665784 -0.48016518
-3.7557788 1.0663196 -0.47468108
-3.8191872 1.0972987 -0.48321193
-3.8538446 1.1203753 -0.48808673
-3.8453474 1.1317469 -0.48747736
-3.8370163 1.1424061 -0.48686802
-3.8144009 1.14873 -0.48443064
-3.7822888 1.1520323 -0.48077455
-3.7549367 1.1566039 -0.4777278
-3.7275934 1.1610163 -0.47468108
-3.7049937 1.1667579 -0.4722437
-3.7202251 1.1844144 -0.47468108
-3.7070377 1.1930548 -0.4734624
-3.7221484 1.2108363 -0.47589979
-3.7088974 1.2194232 -0.47468108
-3.7521436 1.2467178 -0.48077455
-2.2779493 0.77281648 -0.29065838
-2.2848995 0.78318703 -0.29187706
-2.2824275 0.7903617 -0.29187706
-2.2658801 0.79261208 -0.29004902
-2.2446618 0.79311365 -0.28761163
-2.2234633 0.79348916 -0.28517425
-2.2069533 0.79542273 -0.28334624
-2.1904531 0.79725975 -0.28151819
-2.1739633 0.79900104 -0.27969012
-2.1574845 0.80064726 -0.2778621
-2.1456642 0.80393851 -0.2766434
-2.1384859 0.80891973 -0.27603406
-2.1312983 0.8138634 -0.27542472
-2.1333613 0.82234025 -0.27603406
-2.1353924 0.83083755 -0.2766434
-2.1373909 0.83935624 -0.27725273
-2.1347435 0.84606665 -0.27725273
-2.1320748 0.85276926 -0.27725273
-2.1293855 0.85946286 -0.27725273
-2.1265235 0.86651951 -0.27725273
-2.1192009 0.8713091 -0.2766434
-2.1164532 0.87796217 -0.2766434
-2.1136844 0.88460714 -0.2766434
-2.1108952 0.89124286 -0.2766434
-2.1036751 0.89555806 -0.27603406
-2.1008513 0.90216285 -0.27603406
-2.0934529 0.90678567 -0.27542472
-2.086046 0.91137135 -0.27481535
-2.0831726 0.91792011 -0.27481535
-2.0755825 0.9228071 -0.27420601
-2.0726733 0.9293229 -0.27420601
-2.0697434 0.93583006 -0.27420601
-2.0713089 0.94438618 -0.27481535
-2.0683317 0.95088905 -0.27481535
-2.0698369 0.95946908 -0.27542472
-2.0713081 0.96806842 -0.27603406
-2.072746 0.976686 -0.2766434
-2.0741498 0.98532259 -0.27725273
-2.0755203 0.99397719 -0.2778621
-2.0813255 1.0048082 -0.27908078
-2.0915461 1.0178566 -0.28090885
-2.0972488 1.0287939 -0.28212753
-2.1029038 1.0397764 -0.28334624
-2.1129518 1.0530188 -0.28517425
-2.1051989 1.0574238 -0.28456491
-2.1195772 1.0729984 -0.2870023
-2.1338785 1.088673 -0.28943968
-3.2858756 1.7025086 -0.44969785
-3.3245027 1.7357928 -0.45579135
-3.3717368 1.7739565 -0.4631035
-3.46261 1.8356791 -0.47650912
-3.6056559 1.9260497 -0.49722692
-3.6826169 1.9820553 -0.5088045
-3.6807344 1.9959811 -0.50941384
-3.6788011 2.0099137 -0.51002318
-3.6681206 2.0190682 -0.50941384
-3.6617596 2.0305817 -0.50941384
-3.6510296 2.0396554 -0.5088045
-3.6442456 2.0517516 -0.5088045
-3.6377821 2.0631897 -0.5088045
-3.618355 2.0672231 -0.50697643
-3.478713 2.031167 -0.48991475
-3.0545347 1.822314 -0.4320268
-3.5347185 2.1694736 -0.50453907
-3.5489926 2.1936142 -0.50758582
-3.5631502 2.217865 -0.51063257
-3.5645742 2.2343199 -0.51185119
-3.5617344 2.2481558 -0.51246059
-3.5630302 2.2646587 -0.51367927
-3.5642583 2.2811913 -0.51489794
-3.5612454 2.2950664 -0.51550734
-3.558181 2.308944 -0.51611668
-3.5550637 2.3228257 -0.51672602
-3.547749 2.3339825 -0.51672602
-3.5403988 2.3451169 -0.51672602
-3.5330143 2.3562274 -0.51672602
-3.5297143 2.3700821 -0.51733536
-3.5222516 2.3811588 -0.51733536
-3.5188558 2.3950055 -0.51794469
-3.5072207 2.4032426 -0.51733536
-3.5037382 2.4170678 -0.51794469
-3.4838996 2.41957 -0.51611668
-3.4844151 2.4361908 -0.51733536
-3.4803755 2.4505885 -0.51794469
-3.521615 2.5296056 -0.52769423
-3.5337589 2.5551956 -0.53074098
-3.5422137 2.5773485 -0.53317839
-3.5421059 2.5943291 -0.53439707
-3.5379331 2.6083887 -0.5350064
-3.5337059 2.6224487 -0.53561574
-3.5294263 2.6365068 -0.53622514
-3.5206637 2.6481965 -0.53622514
-3.5162828 2.6622396 -0.53683442
-3.5157967 2.6792891 -0.53805315
-2.8046215 2.1794107 -0.43141747
-2.8094883 2.1973827 -0.43324548
-3.4919002 2.7666538 -0.54231858
-3.4909513 2.7837989 -0.54353726
-2.7816541 2.2325134 -0.43324548
-3.4965553 2.8243878 -0.54719335
-3.4902632 2.8557296 -0.54902142
-3.4889359 2.8729901 -0.55024004
-3.4837146 2.8871031 -0.55084944
-3.4746268 2.8980336 -0.55084944
-3.4731076 2.9153159 -0.55206811
-3.4715137 2.9326184 -0.55328679
-3.4660649 2.9467239 -0.55389619
-3.4643316 2.9640515 -0.55511487
-3.4587638 2.978158 -0.5557242
-3.4531407 2.99226 -0.55633354
-3.4474638 3.0063546 -0.55694288
-2.0522051 1.8124472 -0.33148462
-2.0613382 1.832073 -0.333922
-2.0592716 1.841848 -0.33453134
-2.0460978 1.8416684 -0.33331263
-2.0255895 1.8347605 -0.33087525
-2.0088122 1.8310858 -0.32904723
-1.9920784 1.8273233 -0.32721919
-1.9753878 1.8234743 -0.32539111
-1.9623777 1.8229157 -0.32417244
-1.9566408 1.8290719 -0.32417244
-1.9508853 1.8352096 -0.32417244
-1.9447887 1.841669 -0.32417244
-1.9389936 1.8477694 -0.32417244
-1.9331788 1.853852 -0.32417244
-1.9273455 1.8599159 -0.32417244
-1.9214926 1.8659619 -0.32417244
-1.9191707 1.8754576 -0.32478181
-1.913269 1.8814778 -0.32478181
-1.9073491 1.8874791 -0.32478181
-1.8978931 1.8899602 -0.32417244
-1.8919466 1.895913 -0.32417244
-1.8859807 1.9018476 -0.32417244
-1.8799969 1.907763 -0.32417244
-1.8739939 1.9136599 -0.32417244
-1.8714341 1.9230943 -0.32478181
-1.8688328 1.9325317 -0.32539111
-1.8661914 1.9419714 -0.32600048
-1.8635085 1.951414 -0.32660982
-1.8607851 1.9608583 -0.32721919
-1.8546159 1.9666942 -0.32721919
-1.8518215 1.9761326 -0.32782853
-1.8489864 1.985572 -0.32843786
-1.8461099 1.9950138 -0.32904723
-1.8465518 2.0081096 -0.33026594
-1.8435813 2.0175645 -0.33087525
-1.8439064 2.0306942 -0.33209395
-1.8441665 2.0438464 -0.33331263
-1.8509887 2.0644095 -0.33575001
-3.2680202 3.6666558 -0.59837848
-3.2564843 3.6769049 -0.59837848
-3.2481961 3.6908424 -0.59898782
-3.2068787 3.9082892 -0.61604953
-3.2064414 3.9342899 -0.61848688
-3.2065589 3.9597704 -0.62092429
-3.2034366 3.9814236 -0.62275231
-2.2085757 2.7626772 -0.42958942
-2.2375603 2.8536656 -0.44055769
-2.2285838 2.8606813 -0.44055769
-2.2195859 2.8676682 -0.44055769
-2.2070396 2.8710783 -0.43994832
-2.2040329 2.8858862 -0.441167
-2.1979558 2.8967495 -0.44177637
-2.1923394 2.9072204 -0.4423857
-2.1826866 2.9144745 -0.4423857
-2.1735194 2.9213176 -0.4423857
-2.1643314 2.9281311 -0.4423857
-2.1556342 2.9345398 -0.4423857
-2.1464038 2.9412978 -0.4423857
-2.1376677 2.9476533 -0.4423857
-2.1249807 2.9506989 -0.44177637
-2.1185882 2.961396 -0.4423857
-2.1092739 2.9680374 -0.4423857
-2.0999396 2.974649 -0.4423857
-2.0934331 2.9852951 -0.44299507
-2.0891943 3.0003655 -0.44421375
-2.0792332 3.0072773 -0.44421375
-2.0664401 3.0100641 -0.44360438
-2.0435171 2.9956837 -0.44055769
-3.0676515 4.525795 -0.66662526
-3.0617321 4.5477605 -0.66845334
-3.058465 4.5738583 -0.67089075
-3.0578079 4.6041145 -0.67393744
-3.0487945 4.6219835 -0.67515618
-3.042417 4.6439924 -0.67698419
-3.0359328 4.6660066 -0.67881221
-3.0293388 4.6880264 -0.68064028
-3.0253181 4.7142262 -0.68307769
-3.0184939 4.7362628 -0.68490571
-1.8502325 2.9852836 -0.4265427
-1.838765 2.9865341 -0.42593333
-1.8262633 2.9883809 -0.42532402
-1.82459 3.0068312 -0.42715204
-1.8151351 3.0125482 -0.42715204
-1.8082094 3.0224948 -0.42776141
-1.8012398 3.0324271 -0.42837071
-1.794225 3.042346 -0.42898008
-1.7846587 3.0479674 -0.42898008
-1.775074 3.0535593 -0.42898008
-1.7654727 3.0591204 -0.42898008
-1.7558529 3.064652 -0.42898008
-1.7437632 3.0658391 -0.42837071
-1.7341226 3.0713022 -0.42837071
-1.7220393 3.0724058 -0.42776141
-1.7099653 3.0734639 -0.42715204
-1.6997638 3.0791175 -0.42715204
-1.6876978 3.08009 -0.4265427
-1.6780127 3.0853772 -0.4265427
-1.6683118 3.0906334 -0.4265427
-1.65625 3.0914848 -0.42593333
-1.6470702 3.0963855 -0.42593333
-1.6367939 3.1018298 -0.42593333
-1.6270406 3.106957 -0.42593333
-1.6195608 3.1164565 -0.4265427
-1.6103063 3.1212485 -0.4265427
-1.6027545 3.1307092 -0.42715204
-1.5951583 3.1401539 -0.42776141
-1.5875195 3.149581 -0.42837071
-1.5798372 3.1589913 -0.42898008
-1.5699048 3.1639392 -0.42898008
-1.5621494 3.1733077 -0.42958942
-1.5516176 3.1784706 -0.42958942
-1.5416241 3.1833296 -0.42958942
-1.5316162 3.1881568 -0.42958942
-1.5215923 3.1929531 -0.42958942
-1.5094335 3.1932306 -0.42898008
-1.4999524 3.1976953 -0.42898008
-1.4878052 3.1978922 -0.42837071
-1.4777519 3.2025502 -0.42837071
-1.465618 3.2026646 -0.42776141
-1.4555497 3.207253 -0.42776141
-1.44287 3.2075362 -0.42715204
-1.4327856 3.2120535 -0.42715204
-1.4226881 3.2165387 -0.42715204
-1.4131383 3.2207456 -0.42715204
-1.4010329 3.2206187 -0.4265427
-1.3909086 3.2250042 -0.4265427
-1.3788185 3.2247949 -0.42593333
-1.3686812 3.2291105 -0.42593333
-1.3585294 3.2333946 -0.42593333
-1.3483652 3.2376463 -0.42593333
-1.3376212 3.2421 -0.42593333
-1.3274297 3.2462862 -0.42593333
-1.3185203 3.25527 -0.4265427
-1.308856 3.2591677 -0.4265427
-1.3004451 3.2678747 -0.42715204
-1.2907435 3.2717187 -0.42715204
-1.2822659 3.2803798 -0.42776141
-1.2719536 3.2843921 -0.42776141
-1.2598518 3.2837381 -0.42715204
-1.4826988 4.1800556 -0.53988117
-1.4554834 4.1422973 -0.53439707
-1.1701789 3.364078 -0.43263617
-1.4379277 4.2166462 -0.54231858
-1.1263148 3.3371413 -0.42776141
-2.3593888 7.5334263 -0.96459585
-1.0391604 3.3549104 -0.4265427
-1.028615 3.3581586 -0.4265427
-1.0166219 3.3566236 -0.42593333
-1.0188837 3.4025886 -0.43141747
-1.0081896 3.4057727 -0.43141747
-2.2587869 7.719449 -0.98287618
-2.2441766 7.7598782 -0.98714161
-2.2266052 7.7907491 -0.99018842
-0.9465667 3.3925076 -0.42776141
-0.93326718 3.385896 -0.4265427
-0.92132127 3.3840227 -0.42593333
-0.91197461 3.3916929 -0.4265427
-0.90131438 3.3945413 -0.4265427
-0.89190453 3.4021564 -0.42715204
-0.88245493 3.4097464 -0.42776141
-0.87173903 3.4125016 -0.42776141
-0.86222672 3.4200356 -0.42837071
-0.85147858 3.4227273 -0.42837071
-0.84072202 3.4253855 -0.42837071
-0.82995534 3.42801 -0.42837071
-0.82148755 3.4402544 -0.42958942
-0.8095386 3.4379876 -0.42898008
-0.80210114 3.4550161 -0.4308081
-0.81227803 3.5494347 -0.4423857
-0.78780609 3.5447795 -0.441167
-1.2755451 5.8257446 -0.72755998
-1.2488678 5.7909136 -0.72268516
-1.2286047 5.7851005 -0.72146654
-1.2094092 5.7840734 -0.72085714
-1.1912329 5.7878442 -0.72085714
-1.1720595 5.786694 -0.72024781
-1.1529021 5.785481 -0.71963847
-1.1328124 5.7793341 -0.71841979
-1.1146513 5.7828641 -0.71841979
-1.0955552 5.7814612 -0.71781039
-1.0855622 5.8287845 -0.72329456
-1.0734992 5.8663378 -0.72755998
-1.0599113 6.004921 -0.74401236
-1.0332209 5.9692826 -0.73913759
-1.0094773 5.9431429 -0.73548144
-0.99079889 5.9462852 -0.73548144
-0.97155112 5.9394035 -0.73426282
-0.95131326 5.9326262 -0.73304409
-0.92650861 5.8963647 -0.72816932
-0.90345114 5.8698163 -0.72451323
-0.87539291 5.8088303 -0.71659172
-0.83533293 5.7896571 -0.71354502
-1.30519 9.2517586 -1.1425251
-1.2754416 9.2508974 -1.1419157
-1.2463741 9.254858 -1.1419157
-0.46170217 3.5117168 -0.43019879
-0.45066798 3.51315 -0.43019879
-0.43962932 3.5145483 -0.43019879
-0.43038785 3.5306907 -0.4320268
-0.41812226 3.5221694 -0.4308081
-0.40705547 3.5234654 -0.4308081
-0.39543059 3.5197952 -0.43019879
-0.38375619 3.5210872 -0.43019879
-0.37217075 3.5173402 -0.42958942
-0.36111745 3.518492 -0.42958942
-0.35018533 3.5146098 -0.42898008
-0.33914259 3.5156925 -0.42898008
-0.32763365 3.5117993 -0.42837071
-0.31659985 3.5128114 -0.42837071
-0.30556291 3.5137885 -0.42837071
-0.294523 3.5147312 -0.42837071
-0.28347829 3.5156391 -0.42837071
-0.27243266 3.5165124 -0.42837071
-0.26138431 3.5173509 -0.42837071
-0.25068566 3.5231049 -0.42898008
-0.23961672 3.523875 -0.42898008
-0.22854355 3.5246105 -0.42898008
-0.21777555 3.5302644 -0.42958942
-0.20668431 3.530931 -0.42958942
-0.19586544 3.5365181 -0.43019879
-0.18475276 3.5371161 -0.43019879
-0.17364015 3.537679 -0.43019879
-0.16252582 3.5382071 -0.43019879
-0.15140988 3.5387001 -0.43019879
-0.14029056 3.5391583 -0.43019879
-0.12899075 3.5346222 -0.42958942
-0.11772084 3.53005 -0.42898008
-0.10724564 3.5303838 -0.42898008
-0.096019447 3.5257423 -0.42837071
-0.084942997 3.5260265 -0.42837071
-0.073761776 3.5213146 -0.42776141
-0.06269747 3.521529 -0.42776141
-0.051634416 3.5217085 -0.42776141
-0.04062802 3.5268157 -0.42837071
-0.02959005 3.5318885 -0.42898008
-0.01851872 3.5369265 -0.42958942
-0.0074283034 3.5468926 -0.4308081
0.0037193506 3.5518613 -0.43141747
0.014898147 3.5567946 -0.4320268
0.026073497 3.5567303 -0.4320268
0.037298664 3.5615935 -0.43263617
0.048554637 3.5664208 -0.43324548
0.0603812 3.5662403 -0.43324548
0.071683705 3.5709949 -0.43385485
0.082901485 3.5707519 -0.43385485
0.093496576 3.5704904 -0.43385485
0.10456717 3.5652182 -0.43324548
0.11560557 3.5599122 -0.43263617
0.12661356 3.5545716 -0.4320268
0.13758723 3.5491974 -0.43141747
0.14832059 3.538831 -0.43019879
0.15899016 3.5284321 -0.42898008
0.17007568 3.5279152 -0.42898008
0.18115765 3.5273635 -0.42898008
0.19250792 3.5317323 -0.42958942
0.20360178 3.53111 -0.42958942
0.21499674 3.5354066 -0.43019879
0.22641881 3.5396664 -0.4308081
0.23786977 3.5438893 -0.43141747
0.24900158 3.5431244 -0.43141747
0.83404011 11.357431 -1.3935759
0.86933589 11.349808 -1.3929665
0.90419751 11.337127 -1.391748
0.93939805 11.329285 -1.3911386
0.19906953 2.3125536 -0.28029948
0.20456871 2.2921445 -0.2778621
0.21359512 2.3112574 -0.28029948
0.21896596 2.2908142 -0.2778621
0.22713806 2.2999923 -0.27908078
0.23396057 2.2993083 -0.27908078
0.2411826 2.2985618 -0.27908078
0.24840347 2.2977927 -0.27908078
0.25547099 2.2920241 -0.27847144
0.26267123 2.2912102 -0.27847144
0.26928699 2.2854452 -0.2778621
0.27646527 2.2845881 -0.2778621
0.28364086 2.2837083 -0.2778621
0.29144198 2.2877285 -0.27847144
0.29862735 2.2868018 -0.27847144
0.30580977 2.2858524 -0.27847144
0.48002183 3.5042505 -0.42958942
0.4917188 3.5076396 -0.43019879
0.50343984 3.5109901 -0.4308081
0.51518685 3.5143015 -0.43141747
1.6739504 11.173996 -1.3826076
1.7075496 11.158871 -1.381389
0.33072022 2.1167679 -0.25836301
0.332315 2.0863717 -0.25470692
0.3372767 2.0755203 -0.25348821
0.34217241 2.0646586 -0.25226954
0.34783 2.0586803 -0.2516602
0.35429555 2.0575774 -0.2516602
0.36075869 2.0564542 -0.2516602
0.36721718 2.0553107 -0.2516602
0.37367204 2.054147 -0.2516602
0.38012323 2.052963 -0.2516602
0.38657174 2.0517585 -0.2516602
0.39301535 2.050534 -0.2516602
0.39945507 2.0492892 -0.2516602
0.40685561 2.0528922 -0.25226954
0.41330379 2.0516036 -0.25226954
0.42074215 2.0551572 -0.2528789
0.42921752 2.0635426 -0.25409758
0.43877554 2.0767508 -0.2559256
0.74410057 3.4679701 -0.4308081
0.75499326 3.465615 -0.4308081
0.76694822 3.4680719 -0.43141747
0.77675241 3.4608033 -0.4308081
0.7931307 3.4825401 -0.43385485
2.5279336 10.940962 -1.3740768
2.5656888 10.947462 -1.3759049
2.598156 10.939802 -1.3759049
2.6344199 10.931127 -1.3759049
2.6687524 10.922795 -1.3759049
2.7030528 10.914357 -1.3759049
2.7342138 10.901477 -1.3752955
2.7684526 10.892832 -1.3752955
2.8014209 10.879275 -1.3746861
2.8355839 10.87042 -1.3746861
2.8697188 10.861459 -1.3746861
2.9038312 10.852389 -1.3746861
2.9379094 10.843213 -1.3746861
2.973851 10.833411 -1.3746861
3.007869 10.824016 -1.3746861
2.1428885 7.6184688 -0.96703321
2.1654854 7.6120768 -0.96703321
2.1921334 7.6147742 -0.96825188
2.229923 7.6554976 -0.97434539
1.017562 3.4133425 -0.43263617
1.0311453 3.419632 -0.43385485
1.0404352 3.4116287 -0.43324548
1.0482242 3.3988581 -0.4320268
1.0588964 3.3955483 -0.4320268
1.0680659 3.3874724 -0.43141747
1.0787022 3.3841002 -0.43141747
1.0893279 3.3806949 -0.43141747
1.0999447 3.3772554 -0.43141747
1.1121004 3.3784971 -0.4320268
1.1227083 3.3749869 -0.4320268
1.1364677 3.3808515 -0.43324548
1.1422967 3.3631668 -0.43141747
1.1512454 3.3548677 -0.4308081
1.1617789 3.3512344 -0.4308081
2.6518092 7.5723834 -0.98043889
1.1877781 3.3579044 -0.43263617
1.1949817 3.3448098 -0.43141747
1.2054833 3.3410392 -0.43141747
1.2125752 3.3279099 -0.43019879
1.2213118 3.3194261 -0.42958942
1.233462 3.3202252 -0.43019879
1.2433068 3.3165512 -0.43019879
4.1857085 11.053817 -1.4465891
1.2664715 3.3130882 -0.4308081
1.2756622 3.3042412 -0.43019879
1.2848846 3.3006659 -0.43019879
1.2861748 3.2735174 -0.42715204
4.3605618 10.996694 -1.4478078
4.3987732 10.992155 -1.4490265
1.3169682 3.2612507 -0.42715204
1.3384448 3.2846718 -0.4308081
1.3487568 3.2804508 -0.4308081
1.3571541 3.2716138 -0.43019879
1.365509 3.2627561 -0.42958942
1.3757539 3.2584496 -0.42958942
4.6452565 10.906467 -1.4508545
4.6814547 10.896381 -1.4514638
1.4064012 3.2453394 -0.42958942
1.4205647 3.25 -0.4308081
1.432771 3.2500615 -0.43141747
1.4389416 3.236475 -0.43019879
1.4511321 3.2364671 -0.4308081
1.4612921 3.2318923 -0.4308081
1.4734983 3.2318008 -0.43141747
1.4836437 3.2271559 -0.43141747
1.4937743 3.2224791 -0.43141747
1.5038903 3.2177706 -0.43141747
1.5161084 3.2175186 -0.4320268
1.5304675 3.2217052 -0.43324548
1.5255761 3.1855502 -0.42898008
5.2142739 10.800677 -1.4679163
5.2546983 10.797627 -1.4697442
5.2885928 10.781067 -1.4697442
5.3246346 10.768848 -1.4703536
5.3628654 10.760952 -1.4715723
5.3969998 10.749427 -1.4721817
1.6081495 3.1780803 -0.43263617
1.6203799 3.1774337 -0.43324548
1.6286386 3.1676292 -0.43263617
1.6248848 3.1360581 -0.42898008
1.6370255 3.1353374 -0.42958942
1.6607312 3.1565309 -0.43324548
1.6776128 3.1644523 -0.43507355
1.6968985 3.176676 -0.43751094
1.7068713 3.1713285 -0.43751094
1.7168254 3.1659508 -0.43751094
1.7291421 3.1648972 -0.43812031
1.7241715 3.1336639 -0.43446419
1.7610279 3.1756701 -0.441167
3.9953067 7.1516895 -1.0011567
4.0347915 7.1693773 -1.0054221
4.0621891 7.1653013 -1.0066408
4.0871429 7.1568112 -1.0072501
4.1120801 7.1482382 -1.0078595
4.1370039 7.1395793 -1.0084687
4.1606717 7.1315584 -1.0090781
4.1880836 7.1270103 -1.0102968
4.2129798 7.1180892 -1.0109062
4.2378616 7.1090822 -1.0115156
5.0285802 8.3129883 -1.1882261
5.0391784 8.2717209 -1.18457
5.0599489 8.2473898 -1.1833513
5.0858326 8.2314539 -1.1833513
3.0824261 4.9540486 -0.71171695
3.0944757 4.9406767 -0.71110761
3.1073339 4.9267335 -0.71049827
3.1281195 4.925324 -0.71171695
4.7147155 7.3214183 -1.0645287
1.9405028 2.9926851 -0.43324548
1.9498962 2.9865735 -0.43324548
1.9565427 2.9762862 -0.43263617
1.9631438 2.9659867 -0.4320268
1.9696996 2.9556754 -0.43141747
1.9812255 2.9539392 -0.4320268
2.015491 2.9847162 -0.43751094
4.7257552 6.9511304 -1.0273585
4.7656035 6.95999 -1.0310147
4.7902613 6.9490709 -1.031624
4.8290482 6.9584479 -1.0352801
4.8594108 6.9554482 -1.0371082
4.8926568 6.9563851 -1.0395454
4.9230895 6.9531317 -1.0413735
4.9564333 6.9537935 -1.0438108
4.9869337 6.9502859 -1.0456389
5.0203662 6.9506769 -1.0480763
5.0567689 6.9549413 -1.0511231
5.0903201 6.9550371 -1.0535604
5.126862 6.9589901 -1.0566072
5.1634789 6.9627805 -1.0596539
5.20017 6.9664106 -1.0627007
5.2339568 6.9659071 -1.065138
4.2745094 5.3680234 -0.83785176
4.2810373 5.3055487 -0.8323676
4.2789121 5.268959 -0.82871151
4.2819676 5.2408667 -0.8262741
4.2921066 5.2197232 -0.82505548
4.2926631 5.1870975 -0.82200873
4.2994118 5.1621442 -0.82018065
4.302855 5.133399 -0.8177433
4.3093605 5.1084762 -0.81591523
4.3125396 5.0797806 -0.81347781
4.3188081 5.0548863 -0.8116498
4.3281956 5.0337677 -0.81043106
4.3374929 5.0126405 -0.80921245
4.3467002 4.9915047 -0.80799371
4.3558202 4.9703579 -0.80677503
4.3681302 4.9529281 -0.8061657
4.37708 4.9317579 -0.80494702
4.3892455 4.9142818 -0.80433768
4.4013467 4.8967752 -0.80372828
4.4133787 4.8792443 -0.80311894
4.4253445 4.8616858 -0.80250961
4.4405956 4.8477597 -0.80250961
4.4524417 4.8301344 -0.80190027
4.4675932 4.8161235 -0.80190027
4.4793143 4.7984371 -0.80129093
4.4943662 4.7843418 -0.80129093
4.5093765 4.7701969 -0.80129093
4.5243397 4.7560077 -0.80129093
4.539258 4.7417707 -0.80129093
4.554132 4.7274876 -0.80129093
4.5724149 4.7167211 -0.80190027
4.5872121 4.7023311 -0.80190027
4.6054382 4.6914392 -0.80250961
4.6228261 4.6812835 -0.80311894
4.6410074 4.6702585 -0.80372828
4.6591649 4.6591649 -0.80433768
4.677299 4.6480036 -0.80494702
4.6954083 4.6367741 -0.8055563
4.7178445 4.6281285 -0.80677503
4.7394695 4.6202106 -0.80799371
4.7610898 4.612205 -0.80921245
4.7827058 4.6041088 -0.81043106
4.8079042 4.5993533 -0.8122592
4.8323193 4.5953264 -0.81408721
4.8611593 4.5937576 -0.81652457
4.8864193 4.588655 -0.81835258
4.9153261 4.586823 -0.82078999
4.9442668 4.5848565 -0.82322735
4.9732437 4.5827537 -0.82566476
5.0022564 4.580514 -0.82810217
5.0313063 4.5781345 -0.83053958
5.0640683 4.578948 -0.83358628
5.1005769 4.5829182 -0.83724236
2.7538149 2.366982 -0.441167
2.7612371 2.3583193 -0.441167
2.7724159 2.3528445 -0.44177637
2.7835872 2.3473227 -0.4423857
2.7909489 2.3385651 -0.4423857
2.8020957 2.3329613 -0.44299507
2.8094106 2.3241472 -0.44299507
2.8205316 2.3184612 -0.44360438
2.8278024 2.3095877 -0.44360438
2.8388975 2.3038201 -0.44421375
2.8499839 2.2980056 -0.44482309
2.8610623 2.2921441 -0.44543245
2.8682499 2.2831433 -0.44543245
2.8715158 2.2710431 -0.44482309
2.8747339 2.2589447 -0.44421375
2.8779042 2.2468488 -0.44360438
2.8810284 2.2347536 -0.44299507
2.8880346 2.225692 -0.44299507
2.8950121 2.2166083 -0.44299507
2.9019613 2.2075028 -0.44299507
2.9088829 2.198374 -0.44299507
2.9197431 2.1922047 -0.44360438
2.9266155 2.1830215 -0.44360438
2.9374464 2.1767719 -0.44421375
2.9442711 2.1675317 -0.44421375
2.9510658 2.1582716 -0.44421375
2.9578314 2.1489904 -0.44421375
2.9645679 2.1396878 -0.44421375
2.9753079 2.133256 -0.44482309
2.9819961 2.1238968 -0.44482309
2.9927049 2.1173849 -0.44543245
2.9993417 2.1079731 -0.44543245
3.005949 2.0985403 -0.44543245
3.0125277 2.0890853 -0.44543245
3.0190756 2.0796113 -0.44543245
3.021498 2.0673144 -0.44482309
