# .PCD v0.7 - Point Cloud Data file format
VERSION 0.7
FIELDS x y z
SIZE 4 4 4
TYPE F F F
COUNT 1 1 1
WIDTH 1433
HEIGHT 1
VIEWPOINT 0 0 0 1 0 0 0
POINTS 1433
DATA ascii
-0.1968161 -1.9477628 -0.4434889
-0.20293422 -1.947135 -0.4434889
-0.2085301 -1.941644 -0.44236329
-0.21462893 -1.9409794 -0.44236329
-0.22127628 -1.9451358 -0.4434889
-0.22738601 -1.9444312 -0.4434889
-0.23407455 -1.948544 -0.4446145
-0.24019492 -1.9477991 -0.4446145
-0.24631293 -1.9470348 -0.4446145
-0.2524285 -1.9462514 -0.4446145
-0.25854158 -1.9454488 -0.4446145
-0.26499158 -1.9445808 -0.4446145
-0.27109936 -1.9437387 -0.4446145
-0.27754337 -1.942829 -0.4446145
-0.28330681 -1.9419969 -0.4446145
-0.28940639 -1.9410973 -0.4446145
-0.29623663 -1.9449947 -0.4457401
-0.30234528 -1.9440545 -0.4457401
-0.30845121 -1.943095 -0.4457401
-0.31377521 -1.9373074 -0.4446145
-0.31985989 -1.9363121 -0.4446145
-0.32594144 -1.9352976 -0.4446145
-0.33201975 -1.9342642 -0.4446145
-0.33893403 -1.9380103 -0.4457401
-0.34587514 -1.9417323 -0.44686574
-0.35197356 -1.940636 -0.44686574
-0.35806853 -1.9395207 -0.44686574
-0.36415994 -1.9383862 -0.44686574
-0.36933321 -1.9324474 -0.4457401
-0.37573949 -1.9312121 -0.4457401
-0.3818047 -1.9300221 -0.4457401
-0.38786617 -1.9288131 -0.4457401
-0.39392379 -1.9275851 -0.4457401
-0.39997754 -1.9263381 -0.4457401
-0.40602735 -1.925072 -0.4457401
-0.41105253 -1.9190234 -0.4446145
-0.41707927 -1.9177226 -0.4446145
-0.42205167 -1.9116457 -0.4434889
-0.4280552 -1.9103104 -0.4434889
-0.43297437 -1.9042057 -0.44236329
-0.43895447 -1.9028361 -0.44236329
-0.44415137 -1.8966267 -0.44123769
-0.4501076 -1.8952219 -0.44123769
-0.45719996 -1.8985348 -0.44236329
-0.46316215 -1.8970891 -0.44236329
-0.46911973 -1.8956246 -0.44236329
-0.47507271 -1.8941416 -0.44236329
-0.48102099 -1.8926398 -0.44236329
-0.48574969 -1.8864014 -0.44123769
-0.49167359 -1.8848661 -0.44123769
-0.49759266 -1.8833122 -0.44123769
-0.50476605 -1.8864458 -0.44236329
-0.51068997 -1.8848506 -0.44236329
-0.51693738 -1.8831469 -0.44236329
-0.52415526 -1.8862073 -0.4434889
-0.53007835 -1.8845513 -0.4434889
-0.53599626 -1.8828768 -0.4434889
-0.54190886 -1.8811836 -0.4434889
-0.5478161 -1.8794718 -0.4434889
-0.55233997 -1.8730688 -0.44236329
-0.5582217 -1.8713243 -0.44236329
-0.56409788 -1.8695614 -0.44236329
-0.56854659 -1.8631204 -0.44123769
-0.57439697 -1.8613251 -0.44123769
-0.58024168 -1.8595115 -0.44123769
-0.58754635 -1.8623253 -0.44236329
-0.5933941 -1.8604703 -0.44236329
-0.59923601 -1.8585969 -0.44236329
-0.60507202 -1.8567052 -0.44236329
-0.61090207 -1.8547951 -0.44236329
-0.61672604 -1.8528668 -0.44236329
-0.62099069 -1.8463027 -0.44123769
-0.62678796 -1.8443427 -0.44123769
-0.63290066 -1.842254 -0.44123769
-0.63708782 -1.8356543 -0.44011208
-0.64285153 -1.8336438 -0.44011208
-0.64860892 -1.8316151 -0.44011208
-0.65435994 -1.8295684 -0.44011208
-0.66010445 -1.8275037 -0.44011208
-0.66751188 -1.8299975 -0.44123769
-0.67325771 -1.8278915 -0.44123769
-0.680695 -1.8303335 -0.44236329
-0.68644178 -1.8281859 -0.44236329
-0.69390857 -1.8305758 -0.4434889
-0.69965607 -1.8283868 -0.4434889
-0.70539665 -1.8261797 -0.4434889
-0.70936066 -1.8194158 -0.44236329
-0.71507305 -1.8171782 -0.44236329
-0.71898025 -1.8103951 -0.44123769
-0.72466397 -1.8081275 -0.44123769
-0.73034078 -1.805842 -0.44123769
-0.73601043 -1.8035387 -0.44123769
-0.74167275 -1.8012176 -0.44123769
-0.7495116 -1.8032467 -0.44236329
-0.75517297 -1.8008832 -0.44236329
-0.76082689 -1.7985018 -0.44236329
-0.76647329 -1.7961028 -0.44236329
-0.77018595 -1.7892113 -0.44123769
-0.77580315 -1.7867827 -0.44123769
-0.7794584 -1.7798742 -0.44011208
-0.78504616 -1.7774167 -0.44011208
-0.79062623 -1.7749416 -0.44011208
-0.79619849 -1.772449 -0.44011208
-0.80176288 -1.7699389 -0.44011208
-0.80731934 -1.7674114 -0.44011208
-0.81317568 -1.7647246 -0.44011208
-0.81871569 -1.7621613 -0.44011208
-0.82424766 -1.7595805 -0.44011208
-0.82977146 -1.7569823 -0.44011208
-0.83528709 -1.7543669 -0.44011208
-0.8407945 -1.751734 -0.44011208
-0.84629357 -1.749084 -0.44011208
-0.85178429 -1.7464167 -0.44011208
-0.8572666 -1.7437321 -0.44011208
-0.86274052 -1.7410302 -0.44011208
-0.86820585 -1.7383113 -0.44011208
-0.87366265 -1.7355752 -0.44011208
-0.87690669 -1.7284774 -0.43898648
-0.8823325 -1.725714 -0.43898648
-0.8880502 -1.7227787 -0.43898648
-0.89345807 -1.7199802 -0.43898648
-0.89885718 -1.7171649 -0.43898648
-0.90424734 -1.7143326 -0.43898648
-0.911915 -1.7157851 -0.44011208
-0.91730076 -1.7129118 -0.44011208
-0.92499083 -1.714309 -0.44123769
-0.93037194 -1.7113945 -0.44123769
-0.93604207 -1.7082999 -0.44123769
-0.94140428 -1.7053508 -0.44123769
-0.94438934 -1.6981273 -0.44011208
-0.94971955 -1.695152 -0.44011208
-0.95264584 -1.6879175 -0.43898648
-0.95764977 -1.6850835 -0.43898648
-0.96051854 -1.6778388 -0.43786088
-0.96607721 -1.6746444 -0.43786088
-0.9713335 -1.6716011 -0.43786088
-0.97657996 -1.6685414 -0.43786088
-0.98181701 -1.6654651 -0.43786088
-0.98704439 -1.6623725 -0.43786088
-0.99255168 -1.65909 -0.43786088
-0.99775898 -1.6559637 -0.43786088
-1.0054836 -1.6569859 -0.43898648
-1.0106843 -1.6538188 -0.43898648
-1.0133215 -1.6464866 -0.43786088
-1.0184891 -1.643295 -0.43786088
-1.0210673 -1.6359545 -0.43673527
-1.0236093 -1.6286141 -0.43560967
-1.0316103 -1.6293268 -0.43673527
-1.0393429 -1.6301856 -0.43786088
-1.0470909 -1.631012 -0.43898648
-1.0574992 -1.6358969 -0.44123769
-1.0652909 -1.6366495 -0.44236329
-1.0757681 -1.6414438 -0.4446145
-1.0809195 -1.6380562 -0.4446145
-1.0887562 -1.6387099 -0.4457401
-1.093899 -1.6352814 -0.4457401
-1.0963097 -1.6277961 -0.4446145
-1.101418 -1.6243439 -0.4446145
-1.1037689 -1.6168522 -0.4434889
-1.108843 -1.6133766 -0.4434889
-1.1111342 -1.6058789 -0.44236329
-1.1161737 -1.6023803 -0.44236329
-1.1212022 -1.5988657 -0.44236329
-1.1262196 -1.5953356 -0.44236329
-1.1340481 -1.5957606 -0.4434889
-1.1390557 -1.59219 -0.4434889
-1.1440521 -1.5886036 -0.4434889
-1.1490372 -1.5850017 -0.4434889
-1.154011 -1.5813841 -0.4434889
-1.1589733 -1.5777508 -0.4434889
-1.1610279 -1.5701849 -0.44236329
-1.1659551 -1.5665296 -0.44236329
-1.1679494 -1.5589603 -0.44123769
-1.1731129 -1.5550786 -0.44123769
-1.1750464 -1.5475056 -0.44011208
-1.1799022 -1.5438064 -0.44011208
-1.1847464 -1.540092 -0.44011208
-1.1895789 -1.5363624 -0.44011208
-1.1973943 -1.5364603 -0.44123769
-1.2022153 -1.532691 -0.44123769
-1.210043 -1.5327303 -0.44236329
-1.2148523 -1.5289212 -0.44236329
-1.222692 -1.5289018 -0.4434889
-1.2274895 -1.525053 -0.4434889
-1.2322743 -1.5211893 -0.4434889
-1.2370473 -1.5173104 -0.4434889
-1.2418078 -1.5134168 -0.4434889
-1.2468197 -1.5092903 -0.4434889
-1.2515553 -1.5053657 -0.4434889
-1.2562782 -1.5014266 -0.4434889
-1.2609891 -1.4974723 -0.4434889
-1.2656871 -1.4935036 -0.4434889
-1.270373 -1.4895198 -0.4434889
-1.275046 -1.4855216 -0.4434889
-1.2797068 -1.4815084 -0.4434889
-1.2811586 -1.4738042 -0.44236329
-1.2857821 -1.4697723 -0.44236329
-1.2839551 -1.4584124 -0.44011208
-1.2852998 -1.4507253 -0.43898648
-1.2868608 -1.4428195 -0.43786088
-1.2913874 -1.4387693 -0.43786088
-1.2959009 -1.4347054 -0.43786088
-1.3036788 -1.4342319 -0.43898648
-1.3084277 -1.4299008 -0.43898648
-1.3129132 -1.4257834 -0.43898648
-1.3176341 -1.4214218 -0.43898648
-1.3182766 -1.4141731 -0.43786088
-1.3227127 -1.4100248 -0.43786088
-1.3237919 -1.4023197 -0.43673527
-1.3281907 -1.3981541 -0.43673527
-1.3292104 -1.390453 -0.43560967
-1.3335719 -1.3862704 -0.43560967
-1.3379207 -1.3820739 -0.43560967
-1.3390961 -1.3741409 -0.43448406
-1.3434067 -1.369927 -0.43448406
-1.3477036 -1.3657 -0.43448406
-1.3517497 -1.3616954 -0.43448406
-1.3562579 -1.3572053 -0.43448406
-1.3639696 -1.3563727 -0.43560967
-1.371689 -1.3555055 -0.43673527
-1.3759408 -1.3511893 -0.43673527
-1.3801787 -1.3468602 -0.43673527
-1.3844033 -1.3425174 -0.43673527
-1.3888478 -1.3379191 -0.43673527
-1.3965631 -1.3369182 -0.43786088
-1.4042857 -1.3358822 -0.43898648
-1.4084758 -1.3314637 -0.43898648
-1.4162022 -1.3303679 -0.44011208
-1.4201436 -1.3261598 -0.44011208
-1.4243027 -1.321692 -0.44011208
-1.4286778 -1.3169614 -0.44011208
-1.4292156 -1.3091762 -0.43898648
-1.4333216 -1.3046795 -0.43898648
-1.4338002 -1.2969024 -0.43786088
-1.4378676 -1.2923914 -0.43786088
-1.4382871 -1.2846228 -0.43673527
-1.4423159 -1.2800977 -0.43673527
-1.4426765 -1.2723382 -0.43560967
-1.4466667 -1.2677994 -0.43560967
-1.4506423 -1.2632484 -0.43560967
-1.4546039 -1.2586848 -0.43560967
-1.4624645 -1.2570297 -0.43673527
-1.4664061 -1.2524291 -0.43673527
-1.4740477 -1.2509686 -0.43786088
-1.4779706 -1.2463313 -0.43786088
-1.4818786 -1.2416822 -0.43786088
-1.4855565 -1.2372795 -0.43786088
-1.4896511 -1.2323468 -0.43786088
-1.4935154 -1.2276607 -0.43786088
-1.4973646 -1.2229627 -0.43786088
-1.5011995 -1.2182524 -0.43786088
-1.5050192 -1.2135304 -0.43786088
-1.5088243 -1.208796 -0.43786088
-1.5126143 -1.2040502 -0.43786088
-1.5163896 -1.1992921 -0.43786088
-1.5201496 -1.1945225 -0.43786088
-1.5200551 -1.1867427 -0.43673527
-1.523982 -1.1816955 -0.43673527
-1.5276868 -1.1769021 -0.43673527
-1.5313768 -1.1720967 -0.43673527
-1.5350513 -1.1672802 -0.43673527
-1.5387107 -1.1624521 -0.43673527
-1.5423552 -1.1576122 -0.43673527
-1.5459843 -1.1527612 -0.43673527
-1.5495982 -1.1478984 -0.43673527
-1.5531967 -1.1430248 -0.43673527
-1.5528474 -1.1352643 -0.43560967
-1.5524644 -1.1275177 -0.43448406
-1.555999 -1.1226346 -0.43448406
-1.5595181 -1.117741 -0.43448406
-1.563022 -1.1128359 -0.43448406
-1.5665102 -1.1079203 -0.43448406
-1.5739695 -1.1057938 -0.43560967
-1.5816233 -1.1033554 -0.43673527
-1.5850817 -1.0983814 -0.43673527
-1.5925375 -1.0961583 -0.43786088
-1.5959733 -1.0911499 -0.43786088
-1.5993935 -1.0861304 -0.43786088
-1.6027976 -1.0811006 -0.43786088
-1.6102333 -1.0787717 -0.43898648
-1.6136146 -1.0737075 -0.43898648
-1.621231 -1.0710359 -0.44011208
-1.6245875 -1.0659375 -0.44011208
-1.6238469 -1.0581685 -0.43898648
-1.6230732 -1.0504152 -0.43786088
-1.6222671 -1.0426767 -0.43673527
-1.6255347 -1.0375754 -0.43673527
-1.6246718 -1.029855 -0.43560967
-1.6278991 -1.0247461 -0.43560967
-1.6311104 -1.0196266 -0.43560967
-1.6343056 -1.0144975 -0.43560967
-1.6374848 -1.0093579 -0.43560967
-1.6406475 -1.0042089 -0.43560967
-1.6481321 -1.0012922 -0.43673527
-1.6512696 -0.99610972 -0.43673527
-1.6585702 -0.99342018 -0.43786088
-1.6616828 -0.98820496 -0.43786088
-1.6689743 -0.98545647 -0.43898648
-1.6676885 -0.97803575 -0.43786088
-1.6707526 -0.97279197 -0.43786088
-1.669583 -0.96510011 -0.43673527
-1.6683812 -0.95742565 -0.43560967
-1.6715471 -0.95188773 -0.43560967
-1.6702884 -0.94423407 -0.43448406
-1.6774949 -0.94136637 -0.43560967
-1.6847 -0.9384622 -0.43673527
-1.6919031 -0.93552256 -0.43786088
-1.6991047 -0.93254638 -0.43898648
-1.7063038 -0.92953461 -0.44011208
-1.7049304 -0.92185223 -0.43898648
-1.7035254 -0.91418809 -0.43786088
-1.7063892 -0.9088316 -0.43786088
-1.7092358 -0.90346658 -0.43786088
-1.7120658 -0.89809215 -0.43786088
-1.7191999 -0.89495879 -0.43898648
-1.7221582 -0.88925272 -0.43898648
-1.7249433 -0.88383824 -0.43898648
-1.7277116 -0.87841457 -0.43898648
-1.7304626 -0.87298274 -0.43898648
-1.7331966 -0.86754179 -0.43898648
-1.7359135 -0.86209273 -0.43898648
-1.7386134 -0.85663474 -0.43898648
-1.7412958 -0.85116869 -0.43898648
-1.739578 -0.84356821 -0.43786088
-1.7422194 -0.83809918 -0.43786088
-1.7448438 -0.83262151 -0.43786088
-1.7474509 -0.82713604 -0.43786088
-1.7500409 -0.82164192 -0.43786088
-1.7570298 -0.81819671 -0.43898648
-1.7595916 -0.81267256 -0.43898648
-1.762136 -0.80714089 -0.43898648
-1.7646631 -0.80160075 -0.43898648
-1.7716143 -0.79805404 -0.44011208
-1.7741126 -0.79248464 -0.44011208
-1.7765937 -0.78690696 -0.44011208
-1.7791934 -0.78101116 -0.44011208
-1.7771713 -0.77347392 -0.43898648
-1.7795925 -0.76788676 -0.43898648
-1.781996 -0.76229244 -0.43898648
-1.7888671 -0.75859207 -0.44011208
-1.7912414 -0.75296867 -0.44011208
-1.7980951 -0.74921107 -0.44123769
-1.8004398 -0.74355876 -0.44123769
-1.802767 -0.73789859 -0.44123769
-1.8005618 -0.73040038 -0.44011208
-1.8028476 -0.72473991 -0.44011208
-1.8005897 -0.7172699 -0.43898648
-1.8028343 -0.71160936 -0.43898648
-1.8050609 -0.70594233 -0.43898648
-1.8027273 -0.69850773 -0.43786088
-1.8049127 -0.69284111 -0.43786088
-1.8025268 -0.68543607 -0.43673527
-1.8046714 -0.67976964 -0.43673527
-1.8069156 -0.67378134 -0.43673527
-1.8090234 -0.66810161 -0.43673527
-1.8111135 -0.66241491 -0.43673527
-1.8131855 -0.65672207 -0.43673527
-1.8106542 -0.6493777 -0.43560967
-1.8126853 -0.64368641 -0.43560967
-1.8101027 -0.63637251 -0.43448406
-1.8074919 -0.62908167 -0.43335846
-1.8094593 -0.62339991 -0.43335846
-1.8067979 -0.61614013 -0.43223283
-1.8133405 -0.61201847 -0.43335846
-1.8152542 -0.60631895 -0.43335846
-1.8218807 -0.60182399 -0.43448406
-1.828393 -0.59761113 -0.43560967
-1.8302615 -0.59186387 -0.43560967
-1.8367517 -0.58759564 -0.43673527
-1.8432333 -0.58329201 -0.43786088
-1.8497059 -0.57895386 -0.43898648
-1.8515157 -0.57313973 -0.43898648
-1.853307 -0.56732047 -0.43898648
-1.8550802 -0.56149507 -0.43898648
-1.856835 -0.55566466 -0.43898648
-1.8585716 -0.54982823 -0.43898648
-1.8602897 -0.54398686 -0.43898648
-1.8619896 -0.5381397 -0.43898648
-1.8636709 -0.53228766 -0.43898648
-1.865334 -0.52642989 -0.43898648
-1.862286 -0.51925898 -0.43786088
-1.8639081 -0.51340562 -0.43786088
-1.8655118 -0.50754768 -0.43786088
-1.8670971 -0.50168425 -0.43786088
-1.8686639 -0.49581638 -0.43786088
-1.8702979 -0.48961684 -0.43786088
-1.8765434 -0.4849579 -0.43898648
-1.8780578 -0.47905993 -0.43898648
-1.8795534 -0.47315773 -0.43898648
-1.8810307 -0.46725035 -0.43898648
-1.8824893 -0.46133888 -0.43898648
-1.8839294 -0.45542231 -0.43898648
-1.8853508 -0.44950178 -0.43898648
-1.8820113 -0.44246137 -0.43786088
-1.883392 -0.43654695 -0.43786088
-1.8847543 -0.43062767 -0.43786088
-1.8860978 -0.42470467 -0.43786088
-1.8874228 -0.41877699 -0.43786088
-1.888729 -0.41284564 -0.43786088
-1.8900167 -0.40690973 -0.43786088
-1.8912857 -0.40097031 -0.43786088
-1.892536 -0.39502645 -0.43786088
-1.8889958 -0.38809875 -0.43673527
-1.8902057 -0.38216212 -0.43673527
-1.8913969 -0.37622225 -0.43673527
-1.8925695 -0.37027863 -0.43673527
-1.8985074 -0.36525124 -0.43786088
-1.8997082 -0.35895348 -0.43786088
-1.9008265 -0.35298386 -0.43786088
-1.901926 -0.34701023 -0.43786088
-1.9029473 -0.34136564 -0.43786088
-1.9040688 -0.33505329 -0.43786088
-1.9003115 -0.32824087 -0.43673527
-1.9013333 -0.32226899 -0.43673527
-1.8975307 -0.31549543 -0.43560967
-1.8985125 -0.30953234 -0.43560967
-1.8994755 -0.30356672 -0.43560967
-1.9004198 -0.29759759 -0.43560967
-1.9013454 -0.29162604 -0.43560967
-1.9022522 -0.28565109 -0.43560967
-1.9031402 -0.27967384 -0.43560967
-1.9040093 -0.27369329 -0.43560967
-1.9048598 -0.2677106 -0.43560967
-1.9056914 -0.26172522 -0.43560967
-1.9113327 -0.25638446 -0.43673527
-1.9121723 -0.25004476 -0.43673527
-1.9129485 -0.24403651 -0.43673527
-1.9137057 -0.23802534 -0.43673527
-1.914444 -0.23201233 -0.43673527
-1.9151635 -0.22599654 -0.43673527
-1.915864 -0.219979 -0.43673527
-1.9165456 -0.2139588 -0.43673527
-1.9172083 -0.207937 -0.43673527
-1.9178522 -0.20191263 -0.43673527
-1.9184769 -0.19588678 -0.43673527
-1.9190829 -0.18985848 -0.43673527
-1.9196699 -0.18382883 -0.43673527
-1.920238 -0.17779684 -0.43673527
-1.920787 -0.17176361 -0.43673527
-1.9213172 -0.16572818 -0.43673527
-1.9218284 -0.15969162 -0.43673527
-1.9271767 -0.15404165 -0.43786088
-1.9276512 -0.14798622 -0.43786088
-1.9281065 -0.14192985 -0.43786088
-1.9236833 -0.13552921 -0.43673527
-1.9240996 -0.12948535 -0.43673527
-1.9244969 -0.12343972 -0.43673527
-1.9248751 -0.11739339 -0.43673527
-1.9252344 -0.11134537 -0.43673527
-1.9255931 -0.10496037 -0.43673527
-1.9259133 -0.098910682 -0.43673527
-1.9262146 -0.092859507 -0.43673527
-1.9264816 -0.087143973 -0.43673527
-1.9267459 -0.081091575 -0.43673527
-1.9269911 -0.075037867 -0.43673527
-1.9272174 -0.068983935 -0.43673527
-1.9274246 -0.062928803 -0.43673527
-1.9276227 -0.056536805 -0.43673527
-1.9277908 -0.050480977 -0.43673527
-1.9279399 -0.044424653 -0.43673527
-1.9280698 -0.038367372 -0.43673527
-1.9233099 -0.032228608 -0.43560967
-1.9234017 -0.026185937 -0.43560967
-1.9234744 -0.020143518 -0.43560967
-1.9235283 -0.01410039 -0.43560967
-1.9235631 -0.0080576334 -0.43560967
-1.9235789 -0.0020142859 -0.43560967
-1.9235758 0.0040285694 -0.43560967
-1.9284252 0.010097406 -0.43673527
-1.9283839 0.016155425 -0.43673527
-1.9283236 0.0222138 -0.43673527
-1.9282444 0.02827144 -0.43673527
-1.9330169 0.034416039 -0.43786088
-1.9328992 0.040488366 -0.43786088
-1.9327625 0.046560805 -0.43786088
-1.9326067 0.052632269 -0.43786088
-1.9324318 0.058703732 -0.43786088
-1.9322265 0.065111153 -0.43786088
-1.9320124 0.071181357 -0.43786088
-1.9317793 0.077250347 -0.43786088
-1.931527 0.083319083 -0.43786088
-1.9263893 0.089161247 -0.43673527
-1.9261162 0.094877012 -0.43673527
-1.925791 0.10126329 -0.43673527
-1.9254634 0.1073131 -0.43673527
-1.9251168 0.11336134 -0.43673527
-1.9247512 0.11940897 -0.43673527
-1.9243666 0.1254549 -0.43673527
-1.923963 0.13150011 -0.43673527
-1.9235404 0.13754351 -0.43673527
-1.9230987 0.14358607 -0.43673527
-1.9226382 0.1496267 -0.43673527
-1.9221858 0.15533055 -0.43673527
-1.9216882 0.16136877 -0.43673527
-1.9211426 0.16774051 -0.43673527
-1.9206061 0.17377488 -0.43673527
-1.9200507 0.17980804 -0.43673527
-1.9194764 0.18583891 -0.43673527
-1.918883 0.19186847 -0.43673527
-1.9182708 0.19789562 -0.43673527
-1.9127953 0.20340617 -0.43560967
-1.9121103 0.20974769 -0.43560967
-1.9114419 0.21575397 -0.43560967
-1.9107547 0.22175762 -0.43560967
-1.9100883 0.2274259 -0.43560967
-1.9093643 0.23342575 -0.43560967
-1.9086217 0.2394228 -0.43560967
-1.90786 0.24541798 -0.43560967
-1.9070796 0.25141025 -0.43560967
-1.9062355 0.25773305 -0.43560967
-1.910242 0.26438853 -0.43673527
-1.9094019 0.27038819 -0.43673527
-1.908543 0.27638566 -0.43673527
-1.9076654 0.2823799 -0.43673527
-1.9068191 0.28803876 -0.43673527
-1.9010901 0.29328525 -0.43560967
-1.9001594 0.299256 -0.43560967
-1.8992099 0.3052243 -0.43560967
-1.8981872 0.31152073 -0.43560967
-1.902004 0.31828633 -0.43673527
-1.9010513 0.32392821 -0.43673527
-1.8999666 0.33023062 -0.43673527
-1.8989198 0.33619767 -0.43673527
-1.8978542 0.34216189 -0.43673527
-1.8920389 0.34691277 -0.43560967
-1.8908781 0.35318518 -0.43560967
-1.8897593 0.35912356 -0.43560967
-1.8886217 0.36505887 -0.43560967
-1.8874655 0.3709901 -0.43560967
-1.8862907 0.37691817 -0.43560967
-1.8898715 0.38381159 -0.43673527
-1.8886564 0.38974717 -0.43673527
-1.8874227 0.39567837 -0.43673527
-1.8861701 0.4016062 -0.43673527
-1.8801377 0.40650004 -0.43560967
-1.8788513 0.41240492 -0.43560967
-1.8775464 0.41830522 -0.43560967
-1.876223 0.42420188 -0.43560967
-1.874881 0.43009385 -0.43560967
-1.8735206 0.43598211 -0.43560967
-1.8674004 0.44074649 -0.43448406
-1.8660064 0.44661117 -0.43448406
-1.8645942 0.45247096 -0.43448406
-1.8631635 0.45832676 -0.43448406
-1.8664414 0.46535611 -0.43560967
-1.8649703 0.47121716 -0.43560967
-1.8634807 0.47707406 -0.43560967
-1.8619728 0.48292574 -0.43560967
-1.8604463 0.48877317 -0.43560967
-1.8589017 0.49461529 -0.43560967
-1.8573385 0.500453 -0.43560967
-1.8557572 0.50628531 -0.43560967
-1.8541574 0.51211309 -0.43560967
-1.8525395 0.51793528 -0.43560967
-1.8509032 0.52375293 -0.43560967
-1.8492488 0.52956486 -0.43560967
-1.8475759 0.53537208 -0.43560967
-1.8457903 0.54149604 -0.43560967
-1.8487505 0.54867786 -0.43673527
-1.8470175 0.55448341 -0.43673527
-1.8452665 0.56028306 -0.43673527
-1.8434972 0.56607759 -0.43673527
-1.8370572 0.5704214 -0.43560967
-1.8352562 0.57618964 -0.43560967
-1.8288947 0.58015978 -0.43448406
-1.8270632 0.58590233 -0.43448406
-1.8252134 0.59163958 -0.43448406
-1.8232416 0.59768856 -0.43448406
-1.8213549 0.6034137 -0.43448406
-1.8194503 0.60913247 -0.43448406
-1.8221422 0.6164068 -0.43560967
-1.8201969 0.62212795 -0.43560967
-1.8182334 0.62784344 -0.43560967
-1.816252 0.63355225 -0.43560967
-1.8142526 0.63925529 -0.43560967
-1.8122355 0.64495152 -0.43560967
-1.8148987 0.65197265 -0.43673527
-1.8081473 0.65632534 -0.43560967
-1.8060764 0.6620028 -0.43560967
-1.799419 0.66598231 -0.43448406
-1.7927544 0.669927 -0.43335846
-1.786083 0.67383593 -0.43223283
-1.7794045 0.67771006 -0.43110722
-1.7772667 0.68329668 -0.43110722
-1.7752316 0.68856686 -0.43110722
-1.7729384 0.69445002 -0.43110722
-1.7662175 0.69822568 -0.42998162
-1.7640153 0.7037707 -0.42998162
-1.7617956 0.70930886 -0.42998162
-1.7640719 0.71667403 -0.43110722
-1.7753347 0.72775561 -0.43448406
-1.7820431 0.73705351 -0.43673527
-1.7887107 0.7464003 -0.43898648
-1.7908469 0.75390643 -0.44011208
-1.7930865 0.76112008 -0.44123769
-1.7950307 0.76898044 -0.44236329
-1.7970781 0.77654809 -0.4434889
-1.8035613 0.7860831 -0.4457401
-1.8100027 0.79566604 -0.44799134
-1.8164011 0.80529761 -0.45024255
-1.8272043 0.81696516 -0.45361933
-1.837952 0.82870901 -0.45699617
-1.8486438 0.84052783 -0.46037298
-1.8637078 0.85445291 -0.46487546
-1.8742803 0.866436 -0.46825224
-1.8847958 0.8784945 -0.47162908
-1.8908449 0.88855505 -0.47388029
-1.9188617 0.90909159 -0.48175949
-1.9511645 0.931912 -0.49076441
-1.9877312 0.95705801 -0.50089484
-2.0153937 0.97818798 -0.5087741
-2.0254385 0.99093771 -0.51215088
-2.031054 1.001605 -0.51440209
-2.0017228 0.9949702 -0.50764847
-2.0247207 1.0143467 -0.51440209
-1.9649906 0.99215746 -0.49976924
-1.7376394 0.89110911 -0.44236329
-1.7607985 0.90998381 -0.44911695
-1.7536104 0.91326058 -0.44799134
-1.7464187 0.91650164 -0.44686574
-1.7392243 0.91970605 -0.4457401
-1.7320268 0.92287481 -0.4446145
-1.7291191 0.92831135 -0.4446145
-1.7219092 0.93142134 -0.4434889
-1.7189746 0.93682605 -0.4434889
-1.7160228 0.942222 -0.4434889
-1.7087916 0.94525003 -0.44236329
-1.7058134 0.95061398 -0.44236329
-1.6985707 0.95358318 -0.44123769
-1.6955664 0.95891488 -0.44123769
-1.6925457 0.96423674 -0.44123769
-1.689508 0.96954948 -0.44123769
-1.6864538 0.9748522 -0.44123769
-1.6833827 0.98014581 -0.44123769
-1.6760931 0.98296475 -0.44011208
-1.6729965 0.9882257 -0.44011208
-1.6656971 0.99098563 -0.43898648
-1.6583968 0.9937095 -0.43786088
-1.6510957 0.99639773 -0.43673527
-1.6437944 0.99904948 -0.43560967
-1.6364924 1.0016656 -0.43448406
-1.6291906 1.0042454 -0.43335846
-1.6260275 1.0093589 -0.43335846
-1.6187177 1.0118797 -0.43223283
-1.6155306 1.0169603 -0.43223283
-1.6123279 1.0220304 -0.43223283
-1.609109 1.0270908 -0.43223283
-1.6058745 1.0321407 -0.43223283
-1.6026238 1.0371809 -0.43223283
-1.5993577 1.0422103 -0.43223283
-1.5960754 1.0472299 -0.43223283
-1.5927777 1.0522387 -0.43223283
-1.5935203 1.0599357 -0.43335846
-1.5901828 1.0649364 -0.43335846
-1.5908684 1.0726506 -0.43448406
-1.5874909 1.0776429 -0.43448406
-1.5840974 1.082625 -0.43448406
-1.5806885 1.0875961 -0.43448406
-1.5772638 1.0925568 -0.43448406
-1.5738238 1.0975064 -0.43448406
-1.5703679 1.1024455 -0.43448406
-1.5668969 1.1073732 -0.43448406
-1.5634104 1.1122901 -0.43448406
-1.5599082 1.1171964 -0.43448406
-1.5603426 1.1249404 -0.43560967
-1.5568006 1.1298369 -0.43560967
-1.5532436 1.134722 -0.43560967
-1.5496709 1.1395963 -0.43560967
-1.5460833 1.1444589 -0.43560967
-1.5385736 1.1463999 -0.43448406
-1.5310674 1.1483046 -0.43335846
-1.5274521 1.1531091 -0.43335846
-1.5238222 1.1579019 -0.43335846
-1.5240464 1.1656432 -0.43448406
-1.520377 1.1704252 -0.43448406
-1.5166924 1.1751959 -0.43448406
-1.5091516 1.1769589 -0.43335846
-1.5016143 1.1786864 -0.43223283
-1.4979042 1.1833979 -0.43223283
-1.4903657 1.185066 -0.43110722
-1.4904391 1.1927861 -0.43223283
-1.4904784 1.2005186 -0.43335846
-1.490484 1.2082628 -0.43448406
-1.4866806 1.2129395 -0.43448406
-1.4828628 1.2176039 -0.43448406
-1.4790301 1.2222567 -0.43448406
-1.4751832 1.2268969 -0.43448406
-1.4675859 1.2283982 -0.43335846
-1.4637194 1.2330029 -0.43335846
-1.4598387 1.2375951 -0.43335846
-1.4596494 1.2453372 -0.43448406
-1.4557301 1.2499166 -0.43448406
-1.4554821 1.2576691 -0.43560967
-1.4517442 1.261982 -0.43560967
-1.4514393 1.269744 -0.43673527
-1.4510994 1.2775168 -0.43786088
-1.4468549 1.2823219 -0.43786088
-1.4464551 1.2901036 -0.43898648
-1.4423949 1.2946415 -0.43898648
-1.4383206 1.2991663 -0.43898648
-1.4378369 1.3069556 -0.44011208
-1.433724 1.311466 -0.44011208
-1.4331809 1.3192632 -0.44123769
-1.4290295 1.3237591 -0.44123769
-1.4248636 1.3282421 -0.44123769
-1.4171308 1.3293787 -0.44011208
-1.4129473 1.3338244 -0.44011208
-1.4052181 1.3349012 -0.43898648
-1.3974959 1.3359431 -0.43786088
-1.3897814 1.3369493 -0.43673527
-1.3855741 1.3413091 -0.43673527
-1.3813536 1.3456551 -0.43673527
-1.3805983 1.3533983 -0.43786088
-1.3763396 1.3577291 -0.43786088
-1.3755249 1.3654782 -0.43898648
-1.3712281 1.3697929 -0.43898648
-1.3669182 1.3740939 -0.43898648
-1.3625945 1.3783816 -0.43898648
-1.3582575 1.3826554 -0.43898648
-1.353907 1.3869158 -0.43898648
-1.3495433 1.3911622 -0.43898648
-1.3451661 1.3953952 -0.43898648
-1.3441459 1.4031321 -0.44011208
-1.339731 1.407348 -0.44011208
-1.3353032 1.4115498 -0.44011208
-1.3308619 1.415738 -0.44011208
-1.3230823 1.4163519 -0.43898648
-1.318626 1.4205016 -0.43898648
-1.314157 1.4246371 -0.43898648
-1.3096747 1.4287587 -0.43898648
-1.3051798 1.432866 -0.43898648
-1.3006718 1.4369594 -0.43898648
-1.2961512 1.4410384 -0.43898648
-1.2918699 1.4448777 -0.43898648
-1.2908136 1.4523457 -0.44011208
-1.2864988 1.4561691 -0.44011208
-1.2846203 1.4643134 -0.44123769
-1.2829584 1.4722378 -0.44236329
-1.2812575 1.4801676 -0.4434889
-1.2734241 1.4804922 -0.44236329
-1.2656018 1.480782 -0.44123769
-1.2612027 1.4845306 -0.44123769
-1.25339 1.484763 -0.44011208
-1.2458477 1.4847435 -0.43898648
-1.2411772 1.4886498 -0.43898648
-1.2364942 1.492542 -0.43898648
-1.2317994 1.496419 -0.43898648
-1.2270919 1.5002816 -0.43898648
-1.2254453 1.5079097 -0.44011208
-1.2207017 1.5117522 -0.44011208
-1.2159466 1.5155796 -0.44011208
-1.2142158 1.5232017 -0.44123769
-1.2094246 1.5270085 -0.44123769
-1.2048887 1.5305903 -0.44123769
-1.2028069 1.5384153 -0.44236329
-1.1979678 1.5421866 -0.44236329
-1.192847 1.5461508 -0.44236329
-1.187984 1.5498904 -0.44236329
-1.1860603 1.5574908 -0.4434889
-1.1814339 1.5610031 -0.4434889
-1.1794521 1.5686005 -0.4446145
-1.1745181 1.5722983 -0.4446145
-1.1695729 1.5759803 -0.4446145
-1.164616 1.5796469 -0.4446145
-1.1567692 1.5793675 -0.4434889
-1.1492112 1.578854 -0.44236329
-1.1411153 1.5787081 -0.44123769
-1.1361498 1.5822854 -0.44123769
-1.1311735 1.5858467 -0.44123769
-1.126186 1.5893924 -0.44123769
-1.121187 1.5929227 -0.44123769
-1.1189688 1.6004297 -0.44236329
-1.1164336 1.6081333 -0.4434889
-1.1113758 1.6116329 -0.4434889
-1.1063075 1.6151162 -0.4434889
-1.1012278 1.618584 -0.4434889
-1.0934099 1.6179991 -0.44236329
-1.0858887 1.6171917 -0.44123769
-1.0780996 1.6165422 -0.44011208
-1.0703257 1.6158596 -0.43898648
-1.0652438 1.6192143 -0.43898648
-1.0601518 1.6225528 -0.43898648
-1.0577009 1.6299621 -0.44011208
-1.0552142 1.6373718 -0.44123769
-1.0500648 1.6406789 -0.44123769
-1.0449055 1.6439695 -0.44123769
-1.0397354 1.6472442 -0.44123769
-1.0319682 1.6463746 -0.44011208
-1.0267906 1.6496086 -0.44011208
-1.0216035 1.6528261 -0.44011208
-1.0164057 1.6560276 -0.44011208
-1.0140237 1.6631955 -0.44123769
-1.0087938 1.6663728 -0.44123769
-1.0060633 1.6737093 -0.44236329
-1.0008005 1.6768615 -0.44236329
-0.99801087 1.6841886 -0.4434889
-0.99242079 1.6874886 -0.4434889
-0.98711431 1.6905981 -0.4434889
-0.98179847 1.6936908 -0.4434889
-0.9764725 1.696767 -0.4434889
-0.97113734 1.6998261 -0.4434889
-0.96579218 1.7028688 -0.4434889
-0.96282798 1.7101395 -0.4446145
-0.95507371 1.7089034 -0.4434889
-0.94261062 1.6991153 -0.44011208
-0.93256801 1.6935335 -0.43786088
-0.92023373 1.6836305 -0.43448406
-0.91726273 1.6907953 -0.43560967
-0.92118502 1.710826 -0.44011208
-0.92039776 1.7223049 -0.44236329
-0.91954786 1.7337954 -0.4446145
-0.91636527 1.7409868 -0.4457401
-0.91089147 1.7438569 -0.4457401
-0.90571344 1.7465519 -0.4457401
-0.89768827 1.7452136 -0.4446145
-0.89441556 1.7523644 -0.4457401
-0.89110726 1.7595117 -0.44686574
-0.885575 1.7623026 -0.44686574
-1.5256296 3.0599396 -0.78117085
-0.87232506 1.7634652 -0.4457401
-0.86463416 1.7618237 -0.4446145
-0.86122775 1.7689112 -0.4457401
-0.85566604 1.7716082 -0.4457401
-0.84830016 1.7697462 -0.4446145
-0.84273589 1.7724026 -0.4446145
-0.83508575 1.7706351 -0.4434889
-0.82951921 1.7732497 -0.4434889
-0.82189369 1.771428 -0.44236329
-0.81632477 1.7740011 -0.44236329
-0.81074733 1.7765571 -0.44236329
-0.80516231 1.7790953 -0.44236329
-0.79956895 1.7816161 -0.44236329
-0.79198742 1.7796682 -0.44123769
-0.78442556 1.7776906 -0.44011208
-0.77688444 1.7756829 -0.43898648
-0.77517927 1.7870536 -0.44123769
-1.3604192 3.1634157 -0.78679883
-1.3600267 3.1900811 -0.79242688
-1.3556877 3.2077999 -0.79580367
-1.3286619 3.1716037 -0.78567326
-1.3168236 3.1712627 -0.78454763
-1.2512314 3.0402331 -0.75077945
-1.2987121 3.1839848 -0.78567326
-1.2887025 3.1880493 -0.78567326
-0.73340631 1.8308656 -0.44686574
-0.73156708 1.8420889 -0.44911695
-0.72723746 1.8490384 -0.45024255
-0.72319353 1.8558531 -0.45136812
-0.71560532 1.8535712 -0.45024255
-0.70803809 1.8512601 -0.44911695
-1.2182879 3.215616 -0.78567326
-1.2070293 3.2146559 -0.78454763
-0.69767594 1.8759947 -0.45361933
-0.69009542 1.8736058 -0.45249376
-1.1811213 3.2398252 -0.78792447
-1.1709378 3.2435198 -0.78792447
-1.1591018 3.242595 -0.78679883
-0.66454333 1.8776532 -0.45136812
-0.65864098 1.8797318 -0.45136812
-0.64986628 1.8724731 -0.44911695
-0.6455636 1.8791128 -0.45024255
-0.63965678 1.8811318 -0.45024255
-0.63219029 1.8785146 -0.44911695
-0.62628537 1.8804916 -0.44911695
-0.61884999 1.8778229 -0.44799134
-0.61294729 1.8797579 -0.44799134
-0.60554338 1.8770378 -0.44686574
-0.59964323 1.878931 -0.44686574
-0.59520429 1.8854511 -0.44799134
-0.58927774 1.8873118 -0.44799134
-0.58334595 1.8891537 -0.44799134
-0.57740784 1.890977 -0.44799134
-0.5714646 1.8927816 -0.44799134
-0.56412178 1.8898996 -0.44686574
-0.55818194 1.8916624 -0.44686574
-0.551202 1.8886335 -0.4457401
-0.54526567 1.8903559 -0.4457401
-0.53798908 1.8873745 -0.4446145
-0.53337753 1.8937446 -0.4457401
-0.52742577 1.8954109 -0.4457401
-0.52275956 1.901756 -0.44686574
-0.5167827 1.9033889 -0.44686574
-0.51206189 1.9097085 -0.44799134
-0.50606012 1.9113077 -0.44799134
-0.5012849 1.9176015 -0.44911695
-0.49525839 1.9191668 -0.44911695
-0.49009302 1.9255197 -0.45024255
-0.48522845 1.9317746 -0.45136812
-0.48032945 1.9380181 -0.45249376
-0.47423783 1.9395177 -0.45249376
-0.46928477 1.9457337 -0.45361933
-0.46351019 1.9471173 -0.45361933
-0.45739007 1.9485641 -0.45361933
-0.4512665 1.9499913 -0.45361933
-0.44513845 1.9513993 -0.45361933
-0.439006 1.9527881 -0.45361933
-0.43286818 1.9541578 -0.45361933
-0.42568853 1.9507484 -0.45249376
-0.41955823 1.9520762 -0.45249376
-0.41342381 1.9533845 -0.45249376
-0.40728423 1.9546739 -0.45249376
-0.4011417 1.9559437 -0.45249376
-0.39499521 1.9571942 -0.45249376
-0.38884482 1.9584254 -0.45249376
-0.38175577 1.954856 -0.45136812
-0.3756128 1.9560456 -0.45136812
-0.37036979 1.9620032 -0.45249376
-0.36509302 1.9679469 -0.45361933
-0.35978153 1.9738771 -0.45474496
-0.3535789 1.9749975 -0.45474496
-0.34737277 1.9760985 -0.45474496
-0.34116322 1.97718 -0.45474496
-0.33413598 1.9734389 -0.45361933
-0.32827979 1.9744215 -0.45361933
-0.32207561 1.975443 -0.45361933
-0.31586719 1.9764452 -0.45361933
-0.30965671 1.9774277 -0.45361933
-0.30418175 1.9832062 -0.45474496
-0.29795009 1.984152 -0.45474496
-0.29171443 1.9850783 -0.45474496
-0.28547695 1.9859849 -0.45474496
-0.27855861 1.9820476 -0.45361933
-0.27233073 1.9829129 -0.45361933
-0.26545247 1.9789304 -0.45249376
-0.25923339 1.9797547 -0.45249376
-0.25301278 1.9805592 -0.45249376
-0.24678969 1.9813443 -0.45249376
-0.24056417 1.9821098 -0.45249376
-0.2343352 1.9828559 -0.45249376
-0.22754842 1.9787424 -0.45136812
-0.22133115 1.9794475 -0.45136812
-0.21563785 1.9849763 -0.45249376
-0.20940001 1.985644 -0.45249376
-0.20365684 1.9911382 -0.45361933
-0.19740075 1.9917682 -0.45361933
-0.19114272 1.9923785 -0.45361933
-0.18488173 1.9929693 -0.45361933
-0.17862 1.9935402 -0.45361933
-0.17193699 1.989238 -0.45249376
-0.16568702 1.9897684 -0.45249376
-0.15943438 1.9902792 -0.45249376
-0.15352899 1.9907434 -0.45249376
-0.1472744 1.9912158 -0.45249376
-0.14101729 1.9916688 -0.45249376
-0.13441181 1.9921255 -0.45249376
-0.12784028 1.9876761 -0.45136812
-0.12129804 1.9832056 -0.45024255
-0.11541276 1.9835567 -0.45024255
-0.10918093 1.9839095 -0.45024255
-0.10320043 1.9891077 -0.45136812
-0.096951224 1.9894221 -0.45136812
-0.090699993 1.9897169 -0.45136812
-0.084448934 1.989992 -0.45136812
-0.078197032 1.9902475 -0.45136812
-0.072120339 1.9953519 -0.45249376
-0.065851666 1.9955686 -0.45249376
-0.05958128 1.9957657 -0.45249376
-0.053529136 1.9910636 -0.45136812
-0.047272965 1.991222 -0.45136812
-0.040917069 1.9864901 -0.45024255
-0.034676388 1.9866089 -0.45024255
-0.028435364 1.986708 -0.45024255
-0.022194061 1.9867876 -0.45024255
-0.015951481 1.9868475 -0.45024255
-0.0097098006 1.9868878 -0.45024255
-0.0034595216 1.9820368 -0.44911695
0.0027669843 1.9820379 -0.44911695
0.0089945188 1.9820194 -0.44911695
0.015220908 1.9819814 -0.44911695
0.021499863 1.9867952 -0.45024255
0.027741194 1.9867178 -0.45024255
0.033983309 1.9866209 -0.45024255
0.040224031 1.9865043 -0.45024255
0.046578277 1.9912384 -0.45136812
0.052833442 1.9910822 -0.45136812
0.059089147 1.9909064 -0.45136812
0.065503031 1.9955801 -0.45249376
0.071771741 1.9953644 -0.45249376
0.077849329 1.9902611 -0.45136812
0.083754666 1.9900213 -0.45136812
0.09000583 1.9897484 -0.45136812
0.0962561 1.9894558 -0.45136812
0.10250648 1.9891436 -0.45136812
0.10875478 1.9888117 -0.45136812
0.11500202 1.9884603 -0.45136812
0.12095157 1.9832267 -0.45024255
0.12718226 1.9828368 -0.45024255
0.13341063 1.9824275 -0.45024255
0.13998005 1.9868581 -0.45136812
0.14657864 1.9912672 -0.45249376
0.15283446 1.9907968 -0.45249376
0.15947588 1.995163 -0.45361933
0.16574281 1.9946522 -0.45361933
0.17200811 1.9941216 -0.45361933
0.17827171 1.9935714 -0.45361933
0.18453462 1.9930015 -0.45361933
0.19079465 1.9924119 -0.45361933
0.19670586 1.9918369 -0.45361933
0.20345618 1.9960558 -0.45474496
0.20972571 1.9954069 -0.45474496
0.2165176 1.9995813 -0.45587054
0.22711541 2.0376248 -0.46487546
0.23684569 2.0659409 -0.47162908
0.24789514 2.1038921 -0.48063391
0.25567374 2.1127758 -0.48288512
0.26351058 2.1216311 -0.48513633
0.27140671 2.1304579 -0.48738757
0.27999058 2.1440868 -0.49076441
0.28801674 2.152854 -0.49301562
0.2967619 2.1664181 -0.4963924
0.30491993 2.1751239 -0.49864361
0.31106004 2.169333 -0.49751803
0.31716675 2.1635249 -0.4963924
0.32251829 2.1528821 -0.49414119
0.32780725 2.1422269 -0.49188998
0.32927123 2.1074936 -0.48401073
0.32898605 2.0631511 -0.47388029
0.32842553 2.0188315 -0.46374983
0.33237502 2.0033715 -0.46037298
0.33912867 2.0071805 -0.46149862
0.34543249 2.0061052 -0.46149862
0.35173395 2.0050099 -0.46149862
0.35803089 2.003895 -0.46149862
0.36432427 2.0027604 -0.46149862
0.37061405 2.001606 -0.46149862
0.37690127 2.0004315 -0.46149862
0.38318366 1.9992378 -0.46149862
0.38853022 1.9932424 -0.46037298
0.39478999 1.992012 -0.46037298
0.40008488 1.9859861 -0.45924741
0.40632179 1.9847195 -0.45924741
0.41255471 1.9834332 -0.45924741
0.41777647 1.9773608 -0.45812178
0.4239862 1.9760387 -0.45812178
0.43019283 1.9746968 -0.45812178
0.43534222 1.9685791 -0.45699617
0.4415243 1.9672017 -0.45699617
0.4462786 1.9611325 -0.45587054
0.45134136 1.9549743 -0.45474496
0.45636979 1.9488033 -0.45361933
0.46136397 1.9426203 -0.45249376
0.46826598 1.9459791 -0.45361933
0.47587207 1.9491483 -0.45474496
0.48433349 1.9571017 -0.45699617
0.49200684 1.9602098 -0.45812178
0.49902123 1.9634629 -0.45924741
0.50640172 1.9666032 -0.46037298
0.5110051 1.9603782 -0.45924741
0.51716208 1.9587629 -0.45924741
0.52205443 1.9524221 -0.45812178
0.52818537 1.9507725 -0.45812178
0.53302306 1.9444054 -0.45699617
0.53912973 1.9427211 -0.45699617
0.54523009 1.9410179 -0.45699617
0.55132502 1.9392954 -0.45699617
0.55876136 1.9422356 -0.45812178
0.56486112 1.9404703 -0.45812178
0.57199103 1.9434595 -0.45924741
0.57809353 1.9416531 -0.45924741
0.58559608 1.9444917 -0.46037298
0.59170175 1.9426425 -0.46037298
0.59923565 1.94543 -0.46149862
0.60534418 1.943538 -0.46149862
0.61291116 1.9462732 -0.46262425
0.61902225 1.9443381 -0.46262425
0.62512726 1.9423839 -0.46262425
0.63122612 1.9404105 -0.46262425
0.63731974 1.9384176 -0.46262425
0.64340603 1.9364059 -0.46262425
0.64793533 1.9297568 -0.46149862
0.65399438 1.9277117 -0.46149862
0.65846837 1.9210389 -0.46037298
0.66290593 1.9143574 -0.45924741
0.66730797 1.907667 -0.45812178
0.67329752 1.9055612 -0.45812178
0.67928147 1.9034363 -0.45812178
0.68525767 1.901293 -0.45812178
0.69089532 1.8992517 -0.45812178
0.69685936 1.8970715 -0.45812178
0.70450968 1.8994406 -0.45924741
0.71047324 1.8972181 -0.45924741
0.71815252 1.8995336 -0.46037298
0.7258544 1.9018193 -0.46149862
0.73182535 1.8995297 -0.46149862
0.7395547 1.9017619 -0.46262425
0.74519455 1.899559 -0.46262425
0.75115824 1.8972086 -0.46262425
0.7553069 1.8903155 -0.46149862
0.75941968 1.8834151 -0.46037298
0.76349771 1.8765074 -0.45924741
0.76753873 1.8695929 -0.45812178
0.77154392 1.8626717 -0.45699617
0.77739161 1.8602388 -0.45699617
0.78133905 1.8532983 -0.45587054
0.78715825 1.8508343 -0.45587054
0.79296869 1.8483523 -0.45587054
0.80070609 1.8503232 -0.45699617
0.80651486 1.8477987 -0.45699617
0.81427944 1.8497142 -0.45812178
0.82008624 1.847147 -0.45812178
0.82588488 1.8445616 -0.45812178
0.83167547 1.8419579 -0.45812178
0.83947748 1.8437696 -0.45924741
0.84526551 1.8411233 -0.45924741
0.8530916 1.8428797 -0.46037298
0.86061585 1.8447552 -0.46149862
0.86848038 1.8464509 -0.46262425
0.87636387 1.8481152 -0.46374983
0.88426656 1.8497485 -0.46487546
0.89218897 1.8513495 -0.46600103
0.89800048 1.8485376 -0.46600103
0.90380317 1.8457074 -0.46600103
0.90959692 1.842859 -0.46600103
0.91321284 1.8356304 -0.46487546
0.91897488 1.8327525 -0.46487546
0.92221159 1.8256696 -0.46374983
0.92794329 1.822763 -0.46374983
0.93398273 1.8196758 -0.46374983
0.93969458 1.8167328 -0.46374983
0.94314545 1.8094518 -0.46262425
0.94882512 1.8064801 -0.46262425
0.95221746 1.7991841 -0.46149862
0.95786482 1.7961838 -0.46149862
0.96580869 1.7974573 -0.46262425
0.97376978 1.7986984 -0.46374983
0.98143482 1.8000784 -0.46487546
0.99177575 1.8055261 -0.46712667
0.99508399 1.798139 -0.46600103
1.0007288 1.7950035 -0.46600103
1.0063628 1.7918509 -0.46600103
1.0119869 1.7886807 -0.46600103
1.0176009 1.7854928 -0.46600103
1.0256305 1.7865121 -0.46712667
1.0336773 1.787498 -0.46825224
1.0392876 1.7842419 -0.46825224
1.0448877 1.7809683 -0.46825224
1.0504773 1.7776771 -0.46825224
1.0560576 1.7743677 -0.46825224
1.0616264 1.7710413 -0.46825224
1.0646671 1.763527 -0.46712667
1.0702019 1.7601738 -0.46712667
1.0757271 1.7568026 -0.46712667
1.0812407 1.7534145 -0.46712667
1.0864379 1.750199 -0.46712667
1.0919316 1.7467768 -0.46712667
1.1000088 1.7474606 -0.46825224
1.1054931 1.7439964 -0.46825224
1.1109663 1.7405149 -0.46825224
1.1190635 1.7411139 -0.46937788
1.1242241 1.7377863 -0.46937788
1.1270187 1.7301638 -0.46825224
1.1297776 1.7225407 -0.46712667
1.1324986 1.7149178 -0.46600103
1.1324856 1.7032381 -0.46374983
1.1351207 1.6956239 -0.46262425
1.134997 1.6839693 -0.46037298
1.1348107 1.6723331 -0.45812178
1.1592954 1.6969178 -0.46600103
6.5287299 9.4922647 -2.6530542
6.5557489 9.4676991 -2.6519287
1.1529498 1.6539446 -0.45699617
1.1609384 1.6543021 -0.45812178
3.389596 4.7979455 -1.3484764
1.1797805 1.658885 -0.46149862
3.4111691 4.7646694 -1.3450996
1.175653 1.6318841 -0.45587054
1.1807746 1.6281821 -0.45587054
1.1887561 1.6283995 -0.45699617
1.1996353 1.6325085 -0.45924741
1.2018607 1.6248151 -0.45812178
1.20696 1.6210308 -0.45812178
1.2120464 1.6172312 -0.45812178
1.2200547 1.6173049 -0.45924741
1.2251295 1.6134641 -0.45924741
1.2331511 1.6134773 -0.46037298
1.2382137 1.6095955 -0.46037298
1.2462466 1.6095499 -0.46149862
1.2512968 1.6056268 -0.46149862
1.2563347 1.601688 -0.46149862
1.2640998 1.6017773 -0.46262425
1.2694046 1.5975766 -0.46262425
1.2744172 1.593581 -0.46262425
1.279417 1.5895696 -0.46262425
1.2844051 1.5855417 -0.46262425
1.2893797 1.5814991 -0.46262425
1.294066 1.5776668 -0.46262425
1.2990166 1.573593 -0.46262425
1.3039535 1.5695045 -0.46262425
1.3057526 1.561663 -0.46149862
1.3106521 1.5575533 -0.46149862
1.3155395 1.5534276 -0.46149862
1.320413 1.5492872 -0.46149862
1.3252735 1.5451316 -0.46149862
1.3301209 1.5409606 -0.46149862
1.334956 1.5367738 -0.46149862
1.3395094 1.5328065 -0.46149862
1.344318 1.5285909 -0.46149862
1.3491143 1.5243596 -0.46149862
1.3538963 1.5201138 -0.46149862
1.358665 1.5158532 -0.46149862
1.3634202 1.5115775 -0.46149862
1.3681629 1.5072862 -0.46149862
1.3728913 1.5029807 -0.46149862
1.3773441 1.498901 -0.46149862
1.3823072 1.4943253 -0.46149862
1.3869956 1.4899747 -0.46149862
1.3916694 1.4856101 -0.46149862
1.3963295 1.481231 -0.46149862
1.4009758 1.4768372 -0.46149862
1.4087152 1.4761981 -0.46262425
1.4133457 1.4717653 -0.46262425
1.4213475 1.4708211 -0.46374983
1.4259619 1.4663481 -0.46374983
1.4339687 1.4653431 -0.46487546
1.4351466 1.4573599 -0.46374983
1.4397177 1.4528444 -0.46374983
1.4408356 1.444864 -0.46262425
1.4453675 1.4403306 -0.46262425
1.449885 1.4357829 -0.46262425
1.4543884 1.4312211 -0.46262425
1.458878 1.4266443 -0.46262425
1.4631041 1.42231 -0.46262425
1.4675651 1.4177066 -0.46262425
1.4720122 1.4130886 -0.46262425
1.4764441 1.4084573 -0.46262425
1.4808614 1.4038122 -0.46262425
1.4852642 1.3991532 -0.46262425
1.489653 1.3944796 -0.46262425
1.4940263 1.389793 -0.46262425
1.498385 1.3850927 -0.46262425
1.5027287 1.3803788 -0.46262425
1.5070577 1.3756512 -0.46262425
1.5113726 1.3709093 -0.46262425
1.5156717 1.3661546 -0.46262425
1.519956 1.3613864 -0.46262425
1.5205861 1.3533659 -0.46149862
1.5248308 1.3485816 -0.46149862
1.528825 1.3440518 -0.46149862
1.5330398 1.3392425 -0.46149862
1.5372401 1.334419 -0.46149862
1.5414245 1.3295833 -0.46149862
1.5492928 1.3279048 -0.46262425
1.5534567 1.3230312 -0.46262425
1.5613246 1.3212907 -0.46374983
1.5654677 1.3163793 -0.46374983
1.5733339 1.3145787 -0.46487546
1.5812039 1.3127414 -0.46600103
1.5890789 1.310867 -0.46712667
1.5969567 1.3089566 -0.46825224
1.6008331 1.304213 -0.46825224
1.604923 1.2991768 -0.46825224
1.6127926 1.297182 -0.46937788
1.6168597 1.292109 -0.46937788
1.6209108 1.2870233 -0.46937788
1.6249466 1.2819241 -0.46937788
1.6289657 1.276813 -0.46937788
1.6329687 1.2716894 -0.46937788
1.6331025 1.263572 -0.46825224
1.6370646 1.2584345 -0.46825224
1.6410098 1.2532856 -0.46825224
1.6410581 1.2451797 -0.46712667
1.6449616 1.2400181 -0.46712667
1.6488496 1.2348436 -0.46712667
1.6527207 1.2296576 -0.46712667
1.6565754 1.2244596 -0.46712667
1.6643405 1.2221329 -0.46825224
1.6681722 1.2168975 -0.46825224
1.6719868 1.211651 -0.46825224
1.6757849 1.2063925 -0.46825224
1.6753953 1.1985803 -0.46712667
1.6791523 1.1933111 -0.46712667
1.6828927 1.1880302 -0.46712667
1.6866165 1.1827377 -0.46712667
1.6943218 1.1802169 -0.46825224
1.6980209 1.1748885 -0.46825224
1.7057184 1.1723077 -0.46937788
1.7093928 1.1669436 -0.46937788
1.7130502 1.1615678 -0.46937788
1.7166914 1.1561797 -0.46937788
1.7162657 1.1480724 -0.46825224
1.7158062 1.1399792 -0.46712667
1.7153127 1.1319002 -0.46600103
1.7188607 1.1265051 -0.46600103
1.7183082 1.1184423 -0.46487546
1.7259045 1.1156836 -0.46600103
1.7294009 1.1102561 -0.46600103
1.7369887 1.1074359 -0.46712667
1.7445749 1.1045798 -0.46825224
1.7562846 1.10428 -0.47050345
1.7636856 1.1016446 -0.47162908
1.7712774 1.0986665 -0.47275466
1.7830161 1.0982064 -0.47500587
1.7823014 1.090058 -0.47388029
1.7857175 1.0844526 -0.47388029
1.7891155 1.0788375 -0.47388029
1.7883159 1.0707091 -0.47275466
1.7916707 1.0650859 -0.47275466
1.7992039 1.0619276 -0.47388029
1.802531 1.0562701 -0.47388029
1.8058403 1.0506023 -0.47388029
1.8091319 1.0449243 -0.47388029
1.8124061 1.0392348 -0.47388029
1.8156618 1.0335361 -0.47388029
1.8188996 1.0278271 -0.47388029
1.8221196 1.0221081 -0.47388029
1.8251444 1.0166968 -0.47388029
1.8240659 1.0086007 -0.47275466
1.8229548 1.0005217 -0.47162908
1.8260894 0.994789 -0.47162908
1.8249201 0.98673034 -0.47050345
1.8280108 0.98099256 -0.47050345
1.8310835 0.97524512 -0.47050345
1.8384458 0.97176367 -0.47162908
1.8414896 0.96598351 -0.47162908
1.8488362 0.96244317 -0.47275466
1.8516839 0.95695293 -0.47275466
1.8590159 0.9533543 -0.47388029
1.8620017 0.94750953 -0.47388029
1.864969 0.94165546 -0.47388029
1.8679185 0.93579113 -0.47388029
1.870849 0.92991853 -0.47388029
1.8737611 0.92403674 -0.47388029
1.8722786 0.91600484 -0.47275466
1.875147 0.91011864 -0.47275466
1.873608 0.90210909 -0.47162908
1.8720366 0.89411908 -0.47050345
1.8748362 0.88823378 -0.47050345
1.873055 0.88059402 -0.46937788
1.8759649 0.87437785 -0.46937788
1.8787024 0.86848027 -0.46937788
1.8814214 0.8625741 -0.46937788
1.8839726 0.8569876 -0.46937788
1.8910962 0.85306805 -0.47050345
1.8982139 0.84911233 -0.47162908
1.9053251 0.84512019 -0.47275466
1.907971 0.83912951 -0.47275466
1.9150634 0.83507884 -0.47388029
1.9176773 0.82905865 -0.47388029
1.9157945 0.82111108 -0.47275466
1.918365 0.81508762 -0.47275466
1.9209161 0.80905712 -0.47275466
1.9234482 0.80301863 -0.47275466
1.9259614 0.79697222 -0.47275466
1.9239488 0.7890684 -0.47162908
1.9219049 0.78118604 -0.47050345
1.9198308 0.77332443 -0.46937788
1.917726 0.7654835 -0.46825224
1.9155916 0.75766248 -0.46712667
1.9179623 0.75164098 -0.46712667
1.9157727 0.74384874 -0.46600103
1.9181 0.73782676 -0.46600103
1.9204088 0.73179644 -0.46600103
1.9226983 0.72575998 -0.46600103
1.9249687 0.71971631 -0.46600103
1.9272201 0.71366554 -0.46600103
1.9340265 0.70928514 -0.46712667
1.9408244 0.7048679 -0.46825224
1.9476135 0.70041609 -0.46937788
1.9543934 0.69592845 -0.47050345
1.9564499 0.69012612 -0.47050345
1.9633273 0.68523979 -0.47162908
1.9654703 0.67906868 -0.47162908
1.9675939 0.6728909 -0.47162908
1.969698 0.66670644 -0.47162908
1.971783 0.66051441 -0.47162908
1.973734 0.65466172 -0.47162908
1.9757808 0.64845806 -0.47162908
1.9731749 0.6407423 -0.47050345
1.9751781 0.6345405 -0.47050345
1.972519 0.62685698 -0.46937788
1.969831 0.61919641 -0.46825224
1.9671148 0.6115579 -0.46712667
1.9690263 0.60537529 -0.46712667
1.9662572 0.59776962 -0.46600103
1.972791 0.59299219 -0.46712667
1.9793141 0.5881784 -0.46825224
1.9858264 0.58333063 -0.46937788
1.9922262 0.57879573 -0.47050345
1.9987175 0.57387775 -0.47162908
2.005197 0.56892574 -0.47275466
2.0069745 0.56262368 -0.47275466
2.0088291 0.55596513 -0.47275466
2.0105658 0.54965174 -0.47275466
2.012188 0.54368341 -0.47275466
2.0091791 0.53610355 -0.47162908
2.0108533 0.52978915 -0.47162908
2.0172226 0.5246948 -0.47275466
2.0187705 0.51870787 -0.47275466
2.02039 0.51236343 -0.47275466
2.0267158 0.50719553 -0.47388029
2.0282991 0.50082624 -0.47388029
2.0298624 0.49445191 -0.47388029
2.0314057 0.48807275 -0.47388029
2.0329292 0.48168766 -0.47388029
2.0391762 0.4764072 -0.47500587
2.0406628 0.46999887 -0.47500587
2.0421293 0.46358588 -0.47500587
2.0435758 0.45716724 -0.47500587
2.0354869 0.44864798 -0.47275466
2.0321257 0.44121772 -0.47162908
2.0239737 0.43279433 -0.46937788
2.0253234 0.42643395 -0.46937788
2.0266533 0.42006829 -0.46937788
2.0375097 0.41564709 -0.47162908
2.0435815 0.41020301 -0.47275466
2.0496395 0.4047249 -0.47388029
2.0556834 0.39921165 -0.47500587
2.0568585 0.3931112 -0.47500587
2.0580833 0.3866477 -0.47500587
2.059288 0.38017932 -0.47500587
2.0604722 0.37370828 -0.47500587
2.061636 0.36723354 -0.47500587
2.0579808 0.35991594 -0.47388029
2.0591016 0.353448 -0.47388029
2.0602016 0.34697768 -0.47388029
2.0564749 0.33970991 -0.47275466
2.0575321 0.3332479 -0.47275466
2.0537577 0.32601777 -0.47162908
2.0547717 0.31956434 -0.47162908
2.0557654 0.31310779 -0.47162908
2.0567389 0.30664814 -0.47162908
2.0576923 0.30018437 -0.47162908
2.058625 0.29371873 -0.47162908
2.0643625 0.28792313 -0.47275466
2.0652568 0.28143659 -0.47275466
2.0661309 0.27494618 -0.47275466
2.0669844 0.26845416 -0.47275466
2.0629389 0.26170766 -0.47162908
2.063751 0.25522462 -0.47162908
2.0645425 0.24874017 -0.47162908
2.065356 0.24189244 -0.47162908
2.0661058 0.23540302 -0.47162908
2.0668352 0.22891127 -0.47162908
